# .PCD v0.7 - Point Cloud Data file format
VERSION 0.7
FIELDS x y z
SIZE 4 4 4
TYPE F F F
COUNT 1 1 1
WIDTH 1392
HEIGHT 1
VIEWPOINT 0 0 0 1 0 0 0
POINTS 1392
DATA ascii
-0.79348922 -0.32718563 0.80731672
-0.78834063 -0.32718727 0.80732059
-0.78319216 -0.32718894 0.80732465
-0.77804351 -0.32719058 0.80732882
-0.77289492 -0.32719231 0.80733323
-0.76774621 -0.32719404 0.8073374
-0.76259738 -0.32719564 0.80734146
-0.75744861 -0.32719728 0.80734551
-0.7522999 -0.32719898 0.80734956
-0.74715102 -0.32720077 0.80735373
-0.74200189 -0.32720241 0.80735815
-0.73685282 -0.32720402 0.80736226
-0.73170388 -0.32720569 0.80736625
-0.72655481 -0.32720742 0.80737042
-0.72140557 -0.32720912 0.80737436
-0.71670955 -0.32765111 0.80740565
-0.71322852 -0.32677129 0.80735379
-0.70853251 -0.32721329 0.80738497
-0.70338321 -0.32721502 0.80738926
-0.69823372 -0.3272166 0.80739319
-0.69308418 -0.32721826 0.80739731
-0.6879347 -0.32721999 0.80740154
-0.68278503 -0.32722175 0.80740559
-0.67763549 -0.32722336 0.80740982
-0.67248583 -0.32722503 0.80741388
-0.66733611 -0.32722667 0.80741811
-0.66218626 -0.32722837 0.80742198
-0.65703648 -0.3272301 0.80742639
-0.65188676 -0.32723173 0.80743045
-0.64673662 -0.3272334 0.80743462
-0.6415866 -0.32723516 0.80743879
-0.63643664 -0.32723677 0.80744278
-0.63173705 -0.32767883 0.8074739
-0.62826103 -0.32679895 0.80742216
-0.62356132 -0.32724103 0.80745327
-0.61841124 -0.32724273 0.80745757
-0.61326087 -0.32724437 0.80746162
-0.60811055 -0.32724604 0.80746579
-0.60296017 -0.32724765 0.80746984
-0.59780967 -0.32724941 0.80747384
-0.59265912 -0.32725114 0.80747807
-0.58750868 -0.32725275 0.80748236
-0.58235806 -0.32725444 0.80748647
-0.57720727 -0.32725617 0.80749047
-0.57205677 -0.32725781 0.80749476
-0.56690592 -0.32725948 0.80749887
-0.56175512 -0.32726115 0.8075031
-0.55660439 -0.32726282 0.80750734
-0.55145347 -0.32726452 0.80751133
-0.54675013 -0.32770661 0.80754232
-0.54327923 -0.32682663 0.80749059
-0.53857571 -0.32726872 0.80752158
-0.53342479 -0.32727036 0.80752569
-0.52827364 -0.32727206 0.80752999
-0.52312237 -0.3272737 0.8075341
-0.51797116 -0.32727551 0.80753821
-0.51281983 -0.32727715 0.80754244
-0.50766844 -0.32727876 0.8075465
-0.50251704 -0.32728049 0.80755079
-0.49736559 -0.32728219 0.80755502
-0.49221414 -0.32728377 0.80755907
-0.48706254 -0.32728547 0.80756301
-0.48191088 -0.32728717 0.80756742
-0.47675923 -0.32728896 0.80757153
-0.47160751 -0.32729056 0.80757582
-0.4664557 -0.32729223 0.80757982
-0.46174872 -0.32773435 0.80761069
-0.45828307 -0.32685432 0.80755907
-0.453576 -0.3272965 0.80759013
-0.44842404 -0.32729807 0.80759418
-0.44327199 -0.32729974 0.80759841
-0.43811989 -0.32730147 0.80760258
-0.43296778 -0.32730317 0.8076067
-0.42781559 -0.32730487 0.80761063
-0.42266336 -0.32730648 0.8076148
-0.41751102 -0.32730818 0.80761921
-0.4123587 -0.32730991 0.80762339
-0.40720636 -0.32731158 0.8076275
-0.40205392 -0.32731321 0.80763149
-0.3969014 -0.32731491 0.80763561
-0.39174879 -0.32731664 0.80763972
-0.38659632 -0.32731831 0.80764395
-0.38144356 -0.32731998 0.80764824
-0.37673295 -0.32776216 0.80767941
-0.37327245 -0.326882 0.80762738
-0.36856169 -0.32732421 0.80765837
-0.36340886 -0.32732588 0.80766249
-0.35825601 -0.32732752 0.80766696
-0.35310295 -0.32732919 0.80767107
-0.34795001 -0.32733092 0.80767518
-0.34279698 -0.32733259 0.80767924
-0.33764389 -0.32733425 0.80768335
-0.33249068 -0.32733592 0.80768764
-0.32733747 -0.32733765 0.80769169
-0.32218418 -0.32733935 0.80769598
-0.31703091 -0.32734099 0.80770004
-0.31187755 -0.32734263 0.80770403
-0.30672413 -0.32734433 0.8077082
-0.30157062 -0.32734609 0.80771244
-0.29641709 -0.32734773 0.80771667
-0.29170278 -0.3277899 0.80774778
-0.28824744 -0.32690975 0.80769593
-0.28353304 -0.32735187 0.80772692
-0.27837932 -0.32735366 0.80773109
-0.27322561 -0.32735527 0.80773526
-0.26807174 -0.32735693 0.8077395
-0.26291782 -0.32735863 0.80774355
-0.25776386 -0.32736027 0.80774772
-0.25260994 -0.327362 0.80775177
-0.24745591 -0.32736367 0.80775595
-0.24230181 -0.32736537 0.80775988
-0.23714766 -0.32736701 0.80776447
-0.23199347 -0.32736868 0.80776846
-0.2268392 -0.32737041 0.80777252
-0.22168496 -0.32737216 0.80777663
-0.21653056 -0.32737374 0.80778086
-0.21137616 -0.32737541 0.80778515
-0.20751032 -0.32737666 0.80778813
-0.2036445 -0.327378 0.80779141
-0.19848992 -0.32737967 0.80779535
-0.19333535 -0.32738137 0.80779946
-0.18818073 -0.32738301 0.80780363
-0.18302603 -0.32738474 0.80780792
-0.17787129 -0.32738641 0.80781221
-0.17271644 -0.32738808 0.80781621
-0.16756162 -0.32738969 0.80782026
-0.16240668 -0.32739142 0.80782419
-0.15725172 -0.32739308 0.80782831
-0.15209672 -0.32739475 0.80783278
-0.14694165 -0.32739642 0.80783707
-0.14178655 -0.32739815 0.807841
-0.13663137 -0.32739982 0.80784506
-0.13147615 -0.32740149 0.80784917
-0.12632085 -0.32740316 0.80785352
-0.12245437 -0.32740441 0.8078565
-0.11858784 -0.32740572 0.80785978
-0.11343243 -0.32740736 0.80786395
-0.10827696 -0.32740906 0.807868
-0.10312146 -0.32741073 0.807872
-0.097965896 -0.32741246 0.80787623
-0.092810273 -0.32741418 0.80788052
-0.087654591 -0.32741573 0.80788463
-0.082498863 -0.32741743 0.80788881
-0.077343084 -0.32741922 0.80789298
-0.072187252 -0.32742089 0.80789697
-0.067031346 -0.32742247 0.80790114
-0.06187541 -0.32742417 0.80790538
-0.05671943 -0.32742593 0.80790967
-0.051563371 -0.3274276 0.80791366
-0.046407275 -0.32742921 0.80791765
-0.042540163 -0.32743052 0.80792099
-0.038673032 -0.32743177 0.80792391
-0.033516791 -0.3274335 0.8079282
-0.028360508 -0.32743523 0.80793238
-0.023204172 -0.32743672 0.80793649
-0.018047782 -0.32743844 0.8079406
-0.012891338 -0.32744023 0.80794472
-0.0077348426 -0.3274419 0.80794889
-0.0025782927 -0.32744354 0.80795318
0.0025783097 -0.32744518 0.80795735
0.0077349646 -0.32744694 0.8079614
0.012891673 -0.32744861 0.8079654
0.018048435 -0.32745028 0.80796957
0.023205249 -0.32745188 0.80797386
0.028362114 -0.32745361 0.80797797
0.033519037 -0.32745531 0.80798221
0.038676009 -0.32745701 0.8079862
0.042543773 -0.32745826 0.80798942
0.04641157 -0.32745948 0.8079924
0.051568676 -0.32746121 0.80799651
0.056725845 -0.32746291 0.80800092
0.061883043 -0.32746455 0.80800509
0.067040309 -0.32746631 0.80800909
0.072197616 -0.32746795 0.8080132
0.077355012 -0.32746968 0.80801737
0.082512423 -0.32747138 0.80802166
0.087669902 -0.32747298 0.80802578
0.092827439 -0.32747468 0.80802989
0.097985022 -0.32747635 0.808034
0.10314264 -0.32747805 0.80803812
0.10830033 -0.32747972 0.80804223
0.11345808 -0.32748139 0.8080467
0.11861588 -0.32748303 0.80805081
0.12248426 -0.32748431 0.80805373
0.12635268 -0.32748562 0.80805677
0.13151062 -0.32748732 0.80806082
0.13666856 -0.32748893 0.80806488
0.14182661 -0.3274906 0.80806929
0.14698468 -0.32749236 0.8080737
0.15214281 -0.327494 0.80807763
0.15730104 -0.32749569 0.80808163
0.16245925 -0.3274973 0.8080858
0.16761757 -0.32749909 0.80809015
0.17277592 -0.32750073 0.80809426
0.17793433 -0.32750246 0.80809838
0.18309277 -0.32750407 0.80810255
0.18825132 -0.32750577 0.8081066
0.19340983 -0.32750747 0.80811077
0.19856846 -0.32750922 0.80811501
0.20329033 -0.32706979 0.8080914
0.20674331 -0.32795271 0.8081488
0.21146525 -0.32751337 0.80812538
0.21662407 -0.32751507 0.80812937
0.22178292 -0.32751676 0.80813342
0.22694184 -0.32751834 0.80813771
0.23210078 -0.32752004 0.80814207
0.23725976 -0.32752177 0.80814618
0.24241886 -0.3275235 0.80815035
0.247578 -0.32752517 0.8081544
0.25273713 -0.32752681 0.80815852
0.25789636 -0.32752851 0.80816263
0.26305562 -0.32753018 0.80816698
0.268215 -0.3275319 0.80817115
0.27337435 -0.32753354 0.80817527
0.27853382 -0.32753521 0.80817914
0.28325376 -0.3270959 0.80815578
0.28671265 -0.32797879 0.80821329
0.29143268 -0.32753944 0.80818993
0.29659221 -0.32754114 0.80819392
0.30175194 -0.32754281 0.80819792
0.30691162 -0.32754457 0.80820221
0.31207147 -0.32754624 0.80820614
0.31723127 -0.32754782 0.80821055
0.32239124 -0.32754955 0.80821466
0.32755113 -0.32755128 0.8082189
0.3327111 -0.32755291 0.80822295
0.33787116 -0.32755455 0.80822694
0.3430312 -0.32755628 0.80823129
0.34819138 -0.32755798 0.80823553
0.35335162 -0.32755968 0.80823958
0.35851184 -0.32756138 0.80824369
0.36367217 -0.32756302 0.80824786
0.36754242 -0.32756424 0.80825096
0.37141275 -0.32756555 0.80825406
0.37657315 -0.32756719 0.80825824
0.38173369 -0.32756886 0.80826247
0.38689423 -0.32757056 0.8082664
0.3920548 -0.32757223 0.80827057
0.39721549 -0.32757396 0.80827469
0.40237623 -0.32757565 0.80827904
0.40753704 -0.32757732 0.80828327
0.41269782 -0.32757899 0.80828738
0.41785866 -0.32758069 0.80829144
0.42301956 -0.32758242 0.80829555
0.42818055 -0.32758406 0.80829972
0.43334159 -0.32758576 0.80830395
0.43850264 -0.32758746 0.80830806
0.44366372 -0.32758912 0.80831242
0.44753474 -0.32759038 0.80831534
0.45140558 -0.32759163 0.8083185
0.45656696 -0.32759333 0.80832261
0.46172819 -0.32759503 0.80832684
0.46688956 -0.3275966 0.80833095
0.47205102 -0.32759836 0.80833519
0.47721249 -0.32760003 0.80833924
0.48237404 -0.32760167 0.80834341
0.4875356 -0.32760346 0.80834758
0.49269727 -0.32760513 0.80835176
0.49785891 -0.3276068 0.80835587
0.5030207 -0.32760844 0.80836004
0.50818241 -0.32761014 0.80836415
0.51334441 -0.3276118 0.80836838
0.51850629 -0.3276135 0.80837244
0.52322024 -0.32717404 0.80834889
0.52669716 -0.32805723 0.80840641
0.53141123 -0.3276177 0.80838293
0.53657329 -0.32761946 0.80838704
0.54173547 -0.32762116 0.80839109
0.54689765 -0.32762283 0.8083955
0.55205995 -0.32762447 0.80839956
0.55722225 -0.32762611 0.80840367
0.56238455 -0.32762784 0.80840772
0.5675469 -0.32762948 0.8084119
0.57270938 -0.32763118 0.80841613
0.57787192 -0.32763287 0.80842024
0.58303446 -0.32763457 0.80842447
0.58819711 -0.32763621 0.80842853
0.59335989 -0.327638 0.80843282
0.59852254 -0.32763961 0.80843687
0.60323459 -0.32720014 0.80841327
0.60671741 -0.32808331 0.80847079
0.61142951 -0.3276439 0.8084473
0.61659253 -0.32764542 0.80845135
0.62175554 -0.32764724 0.80845553
0.62691855 -0.32764885 0.80845976
0.63208151 -0.32765061 0.80846387
0.63724458 -0.32765222 0.80846792
0.64240783 -0.32765391 0.80847239
0.64757115 -0.32765561 0.80847639
0.65273452 -0.32765731 0.80848044
0.65789777 -0.32765901 0.80848467
0.66306108 -0.32766068 0.80848891
0.66822451 -0.32766241 0.80849302
0.673388 -0.32766405 0.80849707
0.67855167 -0.32766575 0.80850154
0.68326163 -0.32722619 0.80847764
0.68675047 -0.32810947 0.80853516
0.69146061 -0.32766995 0.80851173
0.69662452 -0.32767159 0.80851597
0.70178825 -0.32767332 0.80852008
0.70695204 -0.32767496 0.80852407
0.71211594 -0.32767671 0.80852818
0.71727979 -0.32767835 0.80853236
0.722444 -0.32768005 0.80853665
0.72760797 -0.32768172 0.80854082
0.73277211 -0.32768345 0.80854487
0.73793614 -0.32768509 0.80854899
0.7431004 -0.32768676 0.80855322
0.74826473 -0.32768843 0.80855739
0.75342911 -0.32769015 0.80856162
0.75859344 -0.32769185 0.8085658
0.76330155 -0.32725227 0.80854219
0.76679629 -0.32813564 0.80859971
0.77150452 -0.32769606 0.80857611
0.77666914 -0.32769772 0.80858028
0.78183371 -0.32769945 0.80858445
0.78699839 -0.32770109 0.80858862
0.79216325 -0.32770279 0.80859268
0.79732788 -0.32770446 0.80859679
0.80249274 -0.32770616 0.8086009
0.80765754 -0.32770786 0.80860525
-0.81329632 -0.32145604 0.80694604
-0.80860627 -0.3218976 0.80697703
-0.8034603 -0.32189927 0.80698109
-0.79831392 -0.32190093 0.80698526
-0.79316765 -0.32190254 0.80698943
-0.78802121 -0.32190427 0.80699354
-0.78287488 -0.32190594 0.80699766
-0.77772832 -0.32190755 0.80700183
-0.77258176 -0.32190913 0.807006
-0.76743507 -0.32191083 0.80701005
-0.76228851 -0.32191253 0.80701423
-0.75714177 -0.32191417 0.80701858
-0.75199497 -0.32191575 0.80702263
-0.74684811 -0.32191747 0.80702674
-0.74170107 -0.32191908 0.80703086
-0.73655432 -0.32192069 0.80703491
-0.7314074 -0.32192239 0.80703914
-0.72671372 -0.32236403 0.80707008
-0.7232334 -0.32148489 0.80701852
-0.71853971 -0.32192647 0.80704957
-0.71339262 -0.32192814 0.80705374
-0.70824528 -0.32192987 0.80705774
-0.70309812 -0.32193151 0.80706191
-0.69795084 -0.32193312 0.80706614
-0.69280326 -0.32193479 0.8070702
-0.68765593 -0.32193643 0.80707419
-0.68250841 -0.3219381 0.80707848
-0.67736089 -0.32193971 0.80708247
-0.67221326 -0.32194138 0.80708671
-0.66706562 -0.32194299 0.80709094
-0.6619181 -0.32194468 0.80709517
-0.65677023 -0.32194632 0.8070991
-0.65162253 -0.32194799 0.80710334
-0.64647454 -0.32194966 0.80710739
-0.64177734 -0.32239127 0.80713826
-0.63830215 -0.3215121 0.80708665
-0.63360476 -0.32195374 0.80711782
-0.62845671 -0.32195544 0.80712181
-0.62330866 -0.32195711 0.80712605
-0.61816043 -0.32195866 0.8071301
-0.61301225 -0.32196033 0.80713427
-0.60786402 -0.32196209 0.80713844
-0.60271579 -0.32196367 0.80714273
-0.59756738 -0.32196528 0.80714685
-0.59241897 -0.32196698 0.8071509
-0.58727056 -0.32196864 0.80715513
-0.58212197 -0.32197019 0.80715913
-0.5769735 -0.32197195 0.80716336
-0.57182485 -0.32197359 0.80716765
-0.5666762 -0.32197523 0.80717164
-0.56152743 -0.32197687 0.8071757
-0.55637872 -0.32197854 0.80717969
-0.55251706 -0.32197976 0.80718291
-0.54865539 -0.32198101 0.80718613
-0.54350656 -0.32198265 0.80719036
-0.53835762 -0.32198432 0.80719453
-0.53320861 -0.32198602 0.80719852
-0.52805948 -0.32198766 0.80720258
-0.52291036 -0.3219893 0.80720675
-0.51776123 -0.32199094 0.80721086
-0.51261204 -0.32199258 0.80721509
-0.50746274 -0.3219943 0.80721933
-0.50231338 -0.32199594 0.80722332
-0.49716398 -0.32199755 0.80722749
-0.49201453 -0.32199919 0.80723143
-0.48686507 -0.32200083 0.8072359
-0.48171556 -0.32200247 0.80724001
-0.47656593 -0.32200414 0.80724406
-0.47141626 -0.32200575 0.80724812
-0.46671152 -0.32244754 0.80727929
-0.46324691 -0.32156822 0.80722761
-0.45854199 -0.32200995 0.80725855
-0.45339218 -0.32201159 0.80726296
-0.44824228 -0.32201326 0.80726707
-0.44309235 -0.32201496 0.80727094
-0.4379423 -0.32201654 0.80727512
-0.43279234 -0.32201824 0.80727935
-0.42764226 -0.32201988 0.80728352
-0.42249203 -0.32202154 0.80728775
-0.41734183 -0.32202309 0.80729169
-0.41219151 -0.32202482 0.80729586
-0.40704122 -0.32202652 0.80729991
-0.40189093 -0.3220281 0.80730408
-0.39674056 -0.32202977 0.80730844
-0.39159003 -0.32203147 0.80731267
-0.38643953 -0.32203308 0.80731672
-0.381731 -0.32247487 0.80734754
-0.37827161 -0.32159546 0.80729586
-0.37356302 -0.32203722 0.80732691
-0.36841235 -0.32203892 0.80733103
-0.36326158 -0.3220405 0.80733538
-0.3581107 -0.32204211 0.80733955
-0.35295993 -0.32204384 0.8073436
-0.34780899 -0.32204551 0.80734766
-0.34265798 -0.32204705 0.80735177
-0.33750695 -0.32204875 0.80735594
-0.33235589 -0.32205048 0.80736017
-0.32720476 -0.32205209 0.80736434
-0.32205364 -0.32205373 0.8073684
-0.31690237 -0.32205537 0.80737239
-0.31175113 -0.3220571 0.80737674
-0.30659974 -0.32205871 0.8073808
-0.30144835 -0.32206032 0.80738515
-0.29673615 -0.32250217 0.80741602
-0.29328191 -0.3216227 0.80736423
-0.28856966 -0.32206449 0.80739522
-0.28341809 -0.32206613 0.80739945
-0.27826646 -0.32206777 0.80740368
-0.2731148 -0.32206947 0.80740798
-0.26796305 -0.32207116 0.80741197
-0.26281124 -0.32207271 0.80741602
-0.25765944 -0.32207441 0.80742013
-0.25250754 -0.32207608 0.80742431
-0.2473556 -0.32207772 0.80742854
-0.24220361 -0.32207933 0.80743283
-0.23705153 -0.32208103 0.80743682
-0.23189944 -0.3220827 0.807441
-0.22674724 -0.32208437 0.80744499
-0.22159508 -0.32208595 0.80744916
-0.21644281 -0.32208765 0.80745345
-0.21172692 -0.32252952 0.80748457
-0.20827787 -0.32164994 0.80743271
-0.2035619 -0.32209173 0.80746371
-0.19840948 -0.32209346 0.80746782
-0.19325696 -0.32209507 0.80747193
-0.18810442 -0.32209671 0.80747628
-0.18295182 -0.32209843 0.80748051
-0.17779915 -0.32209998 0.80748451
-0.17264643 -0.32210171 0.80748862
-0.16749369 -0.32210338 0.80749255
-0.16234088 -0.32210499 0.80749685
-0.15718798 -0.32210666 0.8075012
-0.15203507 -0.32210833 0.80750519
-0.14688209 -0.32210994 0.80750936
-0.14172906 -0.32211158 0.80751342
-0.13657595 -0.32211331 0.80751747
-0.13142283 -0.32211488 0.80752158
-0.12755795 -0.32211614 0.80752492
-0.12369305 -0.32211742 0.80752808
-0.11853977 -0.32211909 0.80753225
-0.11338644 -0.3221207 0.80753618
-0.10823308 -0.32212234 0.80754024
-0.10307965 -0.322124 0.80754459
-0.097926155 -0.32212567 0.80754882
-0.09277264 -0.32212731 0.80755299
-0.087619059 -0.32212904 0.80755699
-0.082465395 -0.32213065 0.80756104
-0.07731171 -0.32213226 0.80756521
-0.072157964 -0.32213399 0.80756932
-0.067004174 -0.3221356 0.8075738
-0.061850321 -0.3221373 0.80757773
-0.056696422 -0.32213888 0.8075819
-0.051542457 -0.32214054 0.80758595
-0.046388458 -0.32214227 0.80759019
-0.042522918 -0.32214344 0.80759335
-0.038657349 -0.32214469 0.8075965
-0.033503208 -0.32214636 0.80760062
-0.028349008 -0.32214805 0.80760473
-0.023194762 -0.3221496 0.80760878
-0.018040465 -0.32215124 0.8076129
-0.012886111 -0.322153 0.80761707
-0.0077317054 -0.32215464 0.8076213
-0.0025772476 -0.32215625 0.80762547
0.0025772643 -0.32215789 0.80762964
0.0077318279 -0.32215962 0.80763352
0.012886449 -0.32216123 0.80763781
0.018041121 -0.3221629 0.80764192
0.023195839 -0.32216454 0.80764633
0.028350618 -0.3221662 0.80765039
0.033505443 -0.3221679 0.80765444
0.038660329 -0.32216945 0.80765855
0.042526521 -0.32217073 0.80766171
0.046392743 -0.32217202 0.80766493
0.051547766 -0.32217368 0.80766916
0.05670283 -0.32217526 0.80767322
0.061857957 -0.3221769 0.80767721
0.067013122 -0.32217869 0.80768132
0.072168343 -0.3221803 0.80768549
0.07732363 -0.32218188 0.80768979
0.082478963 -0.32218355 0.8076939
0.087634355 -0.32218525 0.80769807
0.092789799 -0.32218686 0.80770218
0.097945251 -0.3221885 0.80770618
0.10310084 -0.3221902 0.80771059
0.10825642 -0.32219186 0.8077147
0.11341205 -0.32219347 0.80771875
0.11856778 -0.32219514 0.80772287
0.12328964 -0.32175615 0.80769926
0.1267353 -0.32263827 0.80775672
0.13145727 -0.32219923 0.80773324
0.13661315 -0.32220098 0.80773747
0.14176908 -0.32220262 0.8077417
0.14692506 -0.32220429 0.8077457
0.15208113 -0.32220596 0.80774975
0.15723723 -0.32220757 0.80775392
0.16239336 -0.32220924 0.80775815
0.16754955 -0.32221085 0.80776232
0.17270584 -0.32221249 0.8077665
0.17786215 -0.32221425 0.80777073
0.18301857 -0.32221583 0.80777472
0.18817495 -0.32221752 0.80777878
0.19333141 -0.32221913 0.80778319
0.19848792 -0.32222083 0.8077873
0.20364451 -0.32222241 0.80779147
0.20751198 -0.32222363 0.80779439
0.21137947 -0.32222492 0.80779755
0.21653616 -0.32222658 0.80780154
0.22169293 -0.32222825 0.80780596
0.22684979 -0.32222992 0.80781007
0.23200667 -0.32223153 0.80781436
0.23716356 -0.32223326 0.80781823
0.24232054 -0.32223487 0.80782247
0.24747755 -0.32223654 0.80782652
0.25263461 -0.32223821 0.80783075
0.25779176 -0.32223991 0.80783504
0.26294896 -0.3222414 0.80783921
0.26810619 -0.32224315 0.80784315
0.27326348 -0.32224479 0.80784732
0.27842081 -0.32224643 0.80785143
0.28357825 -0.3222481 0.80785573
0.28829604 -0.32180908 0.80783206
0.29175401 -0.32269132 0.80788964
0.29647198 -0.32225221 0.80786604
0.30162948 -0.32225388 0.80787027
0.30678716 -0.32225558 0.80787432
0.31194487 -0.32225722 0.80787861
0.31710264 -0.32225883 0.80788273
0.32226041 -0.32226047 0.80788672
0.32741818 -0.3222622 0.80789077
0.33257616 -0.32226387 0.80789506
0.3377341 -0.32226542 0.80789924
0.34289208 -0.32226709 0.80790329
0.34805015 -0.32226881 0.80790764
0.35320821 -0.32227048 0.80791175
0.3583664 -0.32227206 0.80791587
0.36352468 -0.32227376 0.80791992
0.36824059 -0.32183468 0.80789644
0.37170446 -0.32271698 0.80795383
0.37642038 -0.3222779 0.80793053
0.38157889 -0.32227954 0.80793458
0.38673726 -0.32228121 0.80793858
0.3918958 -0.32228285 0.80794287
0.39705431 -0.32228455 0.80794692
0.40221301 -0.32228616 0.80795121
0.40737164 -0.32228786 0.80795532
0.41253039 -0.3222895 0.80795938
0.41768914 -0.32229114 0.80796349
0.42284802 -0.32229277 0.8079676
0.42800686 -0.3222945 0.80797207
0.43316582 -0.32229614 0.80797613
0.43832478 -0.32229775 0.80798006
0.44348383 -0.32229945 0.80798423
0.44864291 -0.32230106 0.80798841
0.45251232 -0.32230231 0.80799168
0.45638165 -0.3223035 0.80799454
0.46154088 -0.32230523 0.80799872
0.46670014 -0.3223069 0.80800301
0.47185954 -0.32230848 0.80800712
0.47701889 -0.32231015 0.80801135
0.48217836 -0.32231188 0.80801541
0.4873378 -0.32231346 0.80801964
0.49249735 -0.3223151 0.80802375
0.49765694 -0.3223168 0.80802792
0.50281662 -0.32231843 0.80803204
0.50797623 -0.32232019 0.80803603
0.51313609 -0.32232177 0.80804032
0.51829594 -0.32232347 0.80804455
0.52345574 -0.32232508 0.80804873
0.52861565 -0.32232672 0.80805278
0.5324856 -0.32232794 0.80805588
0.53635561 -0.32232922 0.80805904
0.54151565 -0.32233089 0.80806315
0.54667574 -0.32233253 0.80806732
0.55183589 -0.32233417 0.80807155
0.55699611 -0.32233584 0.80807573
0.56215632 -0.32233748 0.80807978
0.56731665 -0.32233912 0.80808389
0.57247716 -0.32234085 0.80808806
0.57763737 -0.32234251 0.80809236
0.58279788 -0.32234418 0.80809647
0.58795834 -0.32234582 0.8081004
0.59311903 -0.32234749 0.80810463
0.59827971 -0.32234913 0.80810881
0.60344023 -0.32235074 0.8081131
0.60860109 -0.32235241 0.80811739
0.61331099 -0.32191321 0.80809373
0.6167931 -0.32279575 0.80815107
0.62150317 -0.32235652 0.80812758
0.62666404 -0.32235819 0.80813164
0.63182509 -0.32235986 0.80813593
0.63698608 -0.3223615 0.80813992
0.64214724 -0.32236317 0.80814415
0.64730835 -0.32236481 0.80814826
0.65246964 -0.32236648 0.80815244
0.6576308 -0.32236814 0.80815649
0.66279209 -0.32236975 0.80816078
0.66795343 -0.32237145 0.80816483
0.67311496 -0.32237312 0.80816901
0.67827624 -0.32237479 0.80817312
0.68343771 -0.32237646 0.80817729
0.68859923 -0.32237807 0.80818146
0.6933074 -0.3219389 0.8081581
0.6967954 -0.32282144 0.80821544
0.7015034 -0.32238224 0.8081919
0.70666522 -0.32238388 0.80819601
0.71182704 -0.32238555 0.80820012
0.71698892 -0.32238725 0.80820441
0.72215074 -0.3223888 0.80820858
0.72731268 -0.3223905 0.80821264
0.7324748 -0.3223922 0.80821675
0.73763674 -0.3223938 0.80822098
0.74279898 -0.32239541 0.80822504
0.7479611 -0.32239714 0.80822927
0.75312328 -0.32239878 0.8082335
0.75828552 -0.32240042 0.80823773
0.76344788 -0.32240209 0.80824178
0.7686103 -0.32240376 0.80824584
0.77331632 -0.32196453 0.80822247
0.77681035 -0.32284716 0.80827981
0.78151643 -0.32240793 0.80825627
0.78667909 -0.3224096 0.80826038
0.79184169 -0.32241121 0.80826455
0.79700434 -0.32241288 0.80826861
0.80216706 -0.32241458 0.80827284
0.80732983 -0.32241622 0.80827701
-0.81342322 -0.3166174 0.80664605
-0.80827898 -0.31661895 0.80665016
-0.8031348 -0.31662062 0.80665445
-0.79799056 -0.3166222 0.80665857
-0.79284632 -0.31662387 0.80666268
-0.78770208 -0.31662545 0.80666667
-0.78255773 -0.31662706 0.80667078
-0.77741313 -0.31662872 0.8066749
-0.77226877 -0.31663027 0.80667919
-0.76712424 -0.31663194 0.8066833
-0.76197976 -0.31663361 0.8066873
-0.75683504 -0.31663519 0.80669141
-0.75169045 -0.31663686 0.80669552
-0.74654561 -0.31663853 0.80669993
-0.74140096 -0.31664017 0.80670398
-0.73670959 -0.3170813 0.80673504
-0.73323005 -0.31620297 0.8066833
-0.72853851 -0.31664413 0.8067143
-0.72339374 -0.31664577 0.80671847
-0.71824861 -0.31664741 0.80672264
-0.71310353 -0.31664899 0.80672675
-0.70795834 -0.31665063 0.80673093
-0.70281327 -0.3166523 0.80673504
-0.69766802 -0.31665385 0.80673921
-0.69252276 -0.31665549 0.80674326
-0.68737745 -0.31665713 0.80674738
-0.68223196 -0.31665874 0.80675149
-0.67708653 -0.31666034 0.80675572
-0.67194104 -0.31666201 0.80675989
-0.66679549 -0.31666362 0.80676389
-0.66164982 -0.31666529 0.80676806
-0.65650433 -0.31666687 0.80677205
-0.65135849 -0.31666848 0.80677623
-0.64749908 -0.31666976 0.8067795
-0.64363986 -0.31667095 0.80678248
-0.63849384 -0.31667247 0.80678672
-0.63334805 -0.3166742 0.80679071
-0.62820214 -0.31667587 0.80679506
-0.62305611 -0.31667736 0.80679905
-0.61791009 -0.31667906 0.80680329
-0.61276406 -0.31668073 0.8068074
-0.60761786 -0.31668225 0.80681151
-0.60247153 -0.31668395 0.80681568
-0.59732521 -0.31668559 0.8068198
-0.59217906 -0.31668717 0.80682397
-0.58703268 -0.31668878 0.80682808
-0.58188611 -0.31669042 0.80683231
-0.57673973 -0.31669208 0.80683637
-0.57159323 -0.31669357 0.80684036
-0.56644654 -0.31669527 0.80684453
-0.56174779 -0.31713662 0.80687571
-0.55827886 -0.31625804 0.80682397
-0.55357987 -0.31669936 0.80685514
-0.54843313 -0.31670097 0.80685908
-0.54328638 -0.31670263 0.80686319
-0.53813952 -0.31670421 0.8068673
-0.53299254 -0.31670579 0.80687147
-0.52784556 -0.31670746 0.80687577
-0.52269846 -0.3167091 0.80687982
-0.51755154 -0.31671071 0.80688393
-0.51240432 -0.31671235 0.80688816
-0.5072571 -0.31671399 0.8068921
-0.50210989 -0.31671557 0.80689633
-0.49696258 -0.31671724 0.80690062
-0.49181524 -0.31671885 0.80690467
-0.48666784 -0.31672052 0.80690873
-0.48152041 -0.3167221 0.80691284
-0.47637281 -0.31672376 0.80691707
-0.47251227 -0.31672493 0.80692011
-0.4686515 -0.31672612 0.80692333
-0.4635039 -0.31672773 0.8069275
-0.45835623 -0.31672943 0.80693156
-0.45320845 -0.31673104 0.80693573
-0.44806069 -0.31673267 0.80693972
-0.44291273 -0.31673422 0.80694377
-0.43776488 -0.31673589 0.80694807
-0.43261689 -0.31673753 0.80695224
-0.42746899 -0.31673917 0.80695623
-0.42232081 -0.31674081 0.8069604
-0.41717267 -0.31674242 0.80696452
-0.41202456 -0.31674403 0.80696881
-0.40687633 -0.31674564 0.80697298
-0.401728 -0.31674725 0.80697709
-0.39657977 -0.31674892 0.80698115
-0.39143136 -0.31675047 0.8069852
-0.38672507 -0.31719193 0.80701643
-0.38326666 -0.31631321 0.8069647
-0.37856013 -0.31675458 0.80699569
-0.3734116 -0.31675625 0.80699992
-0.36826298 -0.31675786 0.80700392
-0.36311442 -0.31675947 0.80700809
-0.35796568 -0.31676114 0.80701226
-0.35281688 -0.31676275 0.80701649
-0.34766802 -0.31676435 0.80702066
-0.34251919 -0.31676599 0.80702472
-0.33737022 -0.31676757 0.80702871
-0.33222124 -0.31676921 0.80703288
-0.32707223 -0.31677088 0.80703694
-0.32192308 -0.31677249 0.80704123
-0.31677395 -0.31677407 0.80704552
-0.31162474 -0.31677574 0.80704951
-0.30647552 -0.31677738 0.80705363
-0.30132619 -0.3167789 0.8070578
-0.29746422 -0.31678015 0.80706102
-0.29360211 -0.31678146 0.80706394
-0.28845271 -0.31678301 0.80706817
-0.28330323 -0.31678465 0.80707246
-0.27815366 -0.31678629 0.80707645
-0.27300411 -0.31678793 0.80708051
-0.26785445 -0.31678951 0.80708468
-0.26270476 -0.31679118 0.80708885
-0.25755501 -0.31679282 0.80709326
-0.2524052 -0.31679443 0.8070972
-0.2472553 -0.31679597 0.80710119
-0.24210544 -0.31679764 0.80710542
-0.23695546 -0.31679931 0.80710942
-0.23180543 -0.31680089 0.80711377
-0.22665542 -0.31680247 0.807118
-0.22150524 -0.31680423 0.80712205
-0.21635509 -0.31680581 0.8071261
-0.21249242 -0.31680703 0.80712932
-0.20862971 -0.31680819 0.80713224
-0.20347942 -0.31680989 0.8071366
-0.19832909 -0.31681147 0.80714071
-0.19317862 -0.31681314 0.80714488
-0.18802816 -0.31681475 0.80714881
-0.18287766 -0.31681639 0.80715299
-0.17772709 -0.31681794 0.8071571
-0.17257644 -0.31681961 0.80716121
-0.1674258 -0.31682128 0.80716556
-0.16227506 -0.31682283 0.80716974
-0.15712425 -0.3168245 0.80717373
-0.15197344 -0.31682616 0.8071779
-0.14682259 -0.3168278 0.80718195
-0.1416716 -0.31682935 0.80718619
-0.13652062 -0.31683105 0.80719054
-0.13136956 -0.31683263 0.80719459
-0.12750624 -0.31683382 0.80719751
-0.12364291 -0.31683505 0.80720055
-0.11849173 -0.31683674 0.80720484
-0.11334049 -0.31683829 0.80720896
-0.10818919 -0.31683993 0.80721319
-0.10303785 -0.31684157 0.80721736
-0.097886465 -0.31684321 0.80722135
-0.09273503 -0.31684482 0.80722547
-0.087583534 -0.31684643 0.8072297
-0.082431987 -0.3168481 0.80723393
-0.077280395 -0.31684971 0.80723804
-0.072128728 -0.31685132 0.80724221
-0.066977017 -0.31685293 0.80724621
-0.061825246 -0.31685457 0.80725038
-0.056673434 -0.31685624 0.80725443
-0.051521569 -0.31685781 0.80725873
-0.046369661 -0.31685942 0.80726296
-0.042505682 -0.31686065 0.807266
-0.038641676 -0.3168619 0.8072691
-0.033489622 -0.31686354 0.80727303
-0.02833752 -0.31686518 0.80727726
-0.023185361 -0.31686676 0.80728149
-0.018033152 -0.31686845 0.80728573
-0.01288089 -0.31687 0.80728984
-0.0077285715 -0.31687167 0.80729389
-0.0025762031 -0.31687328 0.80729806
0.0025762194 -0.31687486 0.80730224
0.007728694 -0.31687653 0.80730635
0.012881223 -0.31687814 0.80731052
0.018033803 -0.31687987 0.80731469
0.02318644 -0.31688139 0.80731881
0.028339123 -0.31688303 0.80732286
0.033491861 -0.3168847 0.80732697
0.038644649 -0.31688625 0.80733132
0.042509284 -0.3168875 0.8073343
0.046373948 -0.31688875 0.8073374
0.051526867 -0.31689036 0.80734146
0.056679837 -0.31689194 0.80734563
0.061832875 -0.31689358 0.80734974
0.066985965 -0.31689531 0.80735415
0.072139092 -0.31689689 0.80735821
0.077292271 -0.31689847 0.80736232
0.082445532 -0.3169001 0.80736637
0.08759883 -0.31690171 0.80737048
0.092752159 -0.31690329 0.8073746
0.097905569 -0.31690499 0.80737889
0.10305903 -0.31690669 0.80738306
0.10821255 -0.31690818 0.80738717
0.1133661 -0.31690985 0.80739123
0.11851974 -0.31691152 0.80739534
0.12367336 -0.31691313 0.80739963
0.12753865 -0.31691435 0.80740273
0.13140397 -0.31691551 0.80740589
0.13655776 -0.31691721 0.80741
0.14171164 -0.31691885 0.807414
0.14686552 -0.3169204 0.80741817
0.15201947 -0.3169221 0.80742234
0.15717347 -0.31692371 0.80742645
0.16232756 -0.31692532 0.8074308
0.16748168 -0.31692696 0.80743486
0.17263584 -0.31692863 0.80743891
0.17779005 -0.31693026 0.80744302
0.1829443 -0.31693184 0.8074472
0.18809862 -0.31693351 0.80745143
0.19325304 -0.31693506 0.80745554
0.19840744 -0.31693673 0.80745965
0.2035619 -0.31693834 0.80746371
0.20827986 -0.31649968 0.80744028
0.21173044 -0.31738108 0.80749768
0.21644841 -0.31694233 0.80747414
0.22160307 -0.316944 0.80747849
0.22675781 -0.31694567 0.8074826
0.23191255 -0.31694725 0.80748659
0.23706737 -0.31694892 0.80749053
0.24222228 -0.31695056 0.80749494
0.2473772 -0.31695217 0.80749917
0.25253215 -0.31695378 0.80750334
0.25768721 -0.31695542 0.80750734
0.26284236 -0.31695712 0.80751145
0.26799747 -0.31695867 0.80751562
0.27315268 -0.31696036 0.80751979
0.27830794 -0.31696197 0.80752403
0.28346324 -0.31696358 0.80752808
0.28861859 -0.31696525 0.80753231
0.29248515 -0.31696638 0.80753529
0.29635173 -0.31696764 0.80753839
0.30150723 -0.31696928 0.80754256
0.30666274 -0.31697085 0.80754691
0.31181839 -0.31697243 0.80755103
0.31697401 -0.31697413 0.80755502
0.32212976 -0.31697577 0.80755919
0.32728547 -0.31697738 0.80756325
0.3324413 -0.31697899 0.80756748
0.33759713 -0.31698066 0.80757177
0.34275305 -0.31698224 0.8075757
0.347909 -0.31698388 0.80757982
0.35306507 -0.31698555 0.80758411
0.35822108 -0.31698719 0.80758816
0.36337721 -0.31698877 0.80759239
0.36853343 -0.31699041 0.80759656
0.37324736 -0.31655169 0.80757308
0.37671021 -0.31743327 0.80763036
0.38142413 -0.31699452 0.80760688
0.38658044 -0.3169961 0.80761099
0.39173692 -0.31699774 0.80761534
0.39689329 -0.31699932 0.80761945
0.4020499 -0.31700099 0.80762351
0.40720645 -0.31700265 0.8076275
0.41236308 -0.31700423 0.80763173
0.41751975 -0.31700581 0.8076359
0.42267653 -0.31700748 0.80764008
0.42783335 -0.31700915 0.80764425
0.4329901 -0.31701076 0.80764848
0.43814707 -0.31701237 0.80765247
0.44330397 -0.3170141 0.80765653
0.44846097 -0.31701565 0.80766076
0.45361805 -0.31701732 0.80766505
0.45748591 -0.31701851 0.80766809
0.46135372 -0.31701979 0.80767131
0.46651095 -0.31702137 0.80767536
0.47166809 -0.31702295 0.80767941
0.47682539 -0.31702459 0.80768359
0.48198277 -0.31702623 0.80768782
0.48714015 -0.31702781 0.80769193
0.49229765 -0.31702948 0.80769598
0.49745509 -0.31703115 0.80770016
0.50261265 -0.31703272 0.80770427
0.5077703 -0.31703436 0.8077085
0.51292795 -0.317036 0.80771261
0.51808566 -0.31703764 0.80771673
0.52324337 -0.31703922 0.8077209
0.52840132 -0.31704092 0.80772519
0.53355902 -0.31704259 0.80772918
0.53826904 -0.31660372 0.8077057
0.54174405 -0.31748539 0.80776304
0.54645407 -0.31704658 0.80773956
0.55161214 -0.31704831 0.80774391
0.55677021 -0.3170498 0.80774784
0.56192839 -0.31705147 0.80775201
0.56708664 -0.31705308 0.80775607
0.57224482 -0.31705475 0.80776042
0.57740319 -0.31705633 0.80776453
0.58256155 -0.31705797 0.8077687
0.58771998 -0.31705961 0.80777276
0.59287846 -0.31706125 0.80777681
0.59803706 -0.31706288 0.80778116
0.60319561 -0.31706452 0.80778521
0.60835439 -0.31706616 0.80778939
0.61351287 -0.31706771 0.80779356
0.61822075 -0.31662887 0.80777001
0.62170184 -0.31751063 0.80782729
0.62640995 -0.31707183 0.80780399
0.63156879 -0.31707346 0.80780804
0.63672775 -0.3170751 0.80781227
0.64188671 -0.31707671 0.80781639
0.64704579 -0.31707832 0.80782044
0.65220487 -0.31707993 0.80782449
0.65736401 -0.31708157 0.80782872
0.66252315 -0.31708321 0.80783296
0.66768247 -0.31708488 0.80783713
0.67284173 -0.31708649 0.80784118
0.67800105 -0.31708816 0.80784541
0.68316066 -0.31708974 0.80784935
0.68831998 -0.31709141 0.80785358
0.69347948 -0.31709301 0.80785775
0.69838709 -0.31684986 0.80784661
0.70191151 -0.31741023 0.8078841
0.70637852 -0.3170971 0.80786818
0.71153826 -0.31709871 0.80787241
0.71669811 -0.31710035 0.80787653
0.72185779 -0.31710196 0.80788058
0.72701758 -0.31710356 0.80788493
0.7321775 -0.3171052 0.80788893
0.73733759 -0.31710684 0.8078931
0.74249768 -0.31710845 0.80789727
0.7476576 -0.31711012 0.8079015
0.75281775 -0.31711179 0.80790567
0.75797802 -0.31711337 0.80790973
0.76313812 -0.31711504 0.80791378
0.76829851 -0.31711662 0.80791789
0.7734589 -0.31711826 0.80792224
0.77861911 -0.3171199 0.80792618
0.78332299 -0.31668094 0.80790287
0.78681642 -0.31756294 0.80796033
0.79152042 -0.31712398 0.80793679
0.79668087 -0.31712553 0.80794078
0.80184174 -0.31712723 0.80794495
0.80700225 -0.31712881 0.80794913
0.81216294 -0.31713042 0.80795336
-0.81309366 -0.31134301 0.80631948
-0.80795181 -0.31134465 0.80632365
-0.80280989 -0.31134623 0.8063277
-0.79766762 -0.31134775 0.80633187
-0.79252553 -0.31134939 0.80633599
-0.78738308 -0.31135103 0.80634016
-0.78224093 -0.31135255 0.80634433
-0.77709854 -0.31135416 0.80634832
-0.77195603 -0.31135577 0.80635244
-0.76681364 -0.31135735 0.80635679
-0.7616713 -0.31135896 0.80636096
-0.75652874 -0.31136057 0.80636489
-0.75138617 -0.31136215 0.80636907
-0.74669713 -0.31180298 0.80640012
-0.74321842 -0.31092528 0.8063485
-0.73852938 -0.3113662 0.80637938
-0.73338664 -0.31136775 0.80638367
-0.72824371 -0.31136939 0.80638772
-0.72310078 -0.31137097 0.80639184
-0.71795785 -0.31137252 0.80639601
-0.71281487 -0.31137413 0.80640006
-0.70767176 -0.31137574 0.80640441
-0.70252872 -0.31137732 0.80640841
-0.69738555 -0.3113789 0.80641258
-0.69224226 -0.31138048 0.80641645
-0.6870991 -0.31138211 0.8064208
-0.68195581 -0.31138363 0.80642486
-0.67681247 -0.31138533 0.80642903
-0.67166883 -0.31138688 0.80643308
-0.66652536 -0.31138846 0.80643725
-0.66138196 -0.31139007 0.80644143
-0.65668911 -0.311831 0.80647236
-0.65321583 -0.31095323 0.80642062
-0.64852291 -0.31139407 0.80645174
-0.64337933 -0.31139567 0.80645591
-0.63823545 -0.31139728 0.8064599
-0.63309169 -0.31139883 0.80646408
-0.62794769 -0.31140044 0.80646825
-0.62280387 -0.31140208 0.8064723
-0.61765987 -0.31140366 0.80647653
-0.61251587 -0.31140521 0.80648065
-0.60737181 -0.31140685 0.80648482
-0.60222763 -0.3114084 0.80648893
-0.59708357 -0.31141004 0.80649322
-0.59193927 -0.31141165 0.80649722
-0.58679491 -0.3114132 0.80650139
-0.58165056 -0.31141481 0.8065055
-0.5765062 -0.31141648 0.80650967
-0.57136172 -0.31141806 0.80651373
-0.56750345 -0.31141928 0.80651706
-0.56364501 -0.31142038 0.80651981
-0.55850047 -0.31142208 0.8065241
-0.55335587 -0.3114236 0.80652839
-0.5482111 -0.31142527 0.80653244
-0.54306638 -0.31142682 0.80653644
-0.53792161 -0.31142837 0.80654067
-0.53277677 -0.31143001 0.80654472
-0.52763182 -0.31143156 0.80654883
-0.52248687 -0.3114332 0.80655301
-0.51734185 -0.31143478 0.80655724
-0.51219678 -0.31143638 0.80656129
-0.50705171 -0.31143796 0.80656546
-0.50190657 -0.31143957 0.80656952
-0.49676141 -0.31144124 0.80657369
-0.49161604 -0.31144276 0.80657792
-0.48647073 -0.31144437 0.80658227
-0.48177037 -0.31188533 0.80661303
-0.47830769 -0.31100738 0.80656129
-0.47360721 -0.3114484 0.80659229
-0.46846172 -0.31145 0.80659646
-0.46331623 -0.31145158 0.80660075
-0.45817056 -0.31145307 0.80660468
-0.45302492 -0.31145477 0.80660897
-0.44787923 -0.31145638 0.80661303
-0.44273341 -0.31145793 0.80661708
-0.43758759 -0.31145954 0.80662125
-0.43244174 -0.31146118 0.80662555
-0.42729583 -0.3114627 0.80662954
-0.42214981 -0.31146434 0.80663371
-0.41700375 -0.31146598 0.80663776
-0.41185769 -0.31146753 0.80664182
-0.40671158 -0.31146911 0.80664617
-0.40156537 -0.31147075 0.8066504
-0.39641914 -0.31147227 0.80665451
-0.3917149 -0.31191328 0.80668539
-0.38825765 -0.31103528 0.80663365
-0.3835533 -0.31147632 0.80666471
-0.37840682 -0.3114779 0.80666894
-0.37326038 -0.31147954 0.80667299
-0.36811379 -0.31148109 0.8066771
-0.36296728 -0.31148267 0.80668128
-0.3578206 -0.31148434 0.80668539
-0.35267398 -0.31148586 0.8066895
-0.34752724 -0.31148747 0.80669361
-0.34238043 -0.31148908 0.80669791
-0.33723354 -0.31149068 0.80670208
-0.33208668 -0.31149226 0.80670613
-0.32693973 -0.31149387 0.80671012
-0.32179272 -0.31149545 0.8067143
-0.31664562 -0.31149706 0.80671841
-0.31149858 -0.3114987 0.8067227
-0.30635136 -0.31150028 0.80672693
-0.30249095 -0.31150144 0.80672991
-0.29863051 -0.31150267 0.80673301
-0.29348323 -0.31150427 0.80673695
-0.28833589 -0.31150588 0.80674112
-0.28318843 -0.31150743 0.80674529
-0.27804103 -0.31150904 0.80674976
-0.27289352 -0.31151065 0.80675393
-0.267746 -0.31151229 0.80675793
-0.26259837 -0.31151381 0.80676186
-0.25745064 -0.31151542 0.80676615
-0.25230297 -0.31151709 0.80677027
-0.2471552 -0.31151867 0.8067745
-0.24200737 -0.31152025 0.80677861
-0.23685947 -0.31152186 0.8067826
-0.23171154 -0.31152344 0.80678672
-0.22656359 -0.31152505 0.80679077
-0.22141556 -0.31152666 0.80679494
-0.2167037 -0.31196767 0.80682611
-0.21325712 -0.31108958 0.80677444
-0.20854524 -0.31153065 0.80680543
-0.20339698 -0.31153229 0.80680954
-0.1982487 -0.31153378 0.80681366
-0.19310044 -0.31153545 0.80681777
-0.18795201 -0.31153706 0.80682188
-0.18280356 -0.31153861 0.80682611
-0.1776551 -0.31154019 0.80683023
-0.17250659 -0.31154186 0.80683434
-0.16735795 -0.31154341 0.80683833
-0.16220932 -0.31154498 0.80684263
-0.15706062 -0.31154665 0.80684686
-0.15191188 -0.31154823 0.80685109
-0.14676309 -0.31154975 0.80685508
-0.14161421 -0.31155142 0.80685914
-0.13646531 -0.31155303 0.80686325
-0.13131635 -0.31155458 0.80686748
-0.12745458 -0.3115558 0.80687058
-0.12359282 -0.31155705 0.80687392
-0.11844373 -0.31155863 0.80687785
-0.11329457 -0.31156021 0.8068819
-0.10814536 -0.31156185 0.80688608
-0.10299612 -0.31156337 0.80689031
-0.097846821 -0.31156495 0.80689448
-0.092697464 -0.31156659 0.80689871
-0.087548062 -0.31156814 0.80690271
-0.082398601 -0.31156978 0.80690682
-0.077249072 -0.31157139 0.80691075
-0.072099499 -0.31157294 0.80691504
-0.066949882 -0.31157461 0.80691928
-0.0618002 -0.31157622 0.80692351
-0.056650475 -0.31157777 0.80692756
-0.051500712 -0.31157938 0.80693161
-0.046350874 -0.31158099 0.80693573
-0.042488456 -0.31158218 0.80693883
-0.038626026 -0.31158343 0.80694199
-0.033476058 -0.31158495 0.80694616
-0.028326036 -0.31158653 0.80695039
-0.02317597 -0.31158817 0.80695444
-0.018025847 -0.31158981 0.8069585
-0.012875669 -0.31159136 0.80696267
-0.0077254409 -0.31159297 0.80696678
-0.0025751588 -0.31159455 0.80697113
0.0025751751 -0.31159618 0.80697507
0.0077255629 -0.31159782 0.80697918
0.012876003 -0.31159934 0.80698323
0.018026493 -0.31160098 0.80698752
0.023177043 -0.31160256 0.80699164
0.028327644 -0.3116042 0.80699593
0.03347829 -0.31160575 0.80700004
0.038628999 -0.31160736 0.80700409
0.042492062 -0.31160855 0.80700725
0.046355154 -0.31160972 0.80701005
0.051505994 -0.31161135 0.80701441
0.056656882 -0.31161296 0.80701876
0.061807822 -0.31161457 0.80702281
0.066958815 -0.31161615 0.80702686
0.072109871 -0.31161773 0.80703098
0.077260964 -0.31161937 0.80703503
0.082412116 -0.31162089 0.80703926
0.087563314 -0.31162253 0.80704343
0.092714593 -0.31162417 0.80704761
0.097865894 -0.31162569 0.80705172
0.10301728 -0.31162736 0.80705577
0.10816868 -0.31162894 0.80705982
0.11332016 -0.31163058 0.80706418
0.11847167 -0.31163219 0.80706829
0.12362325 -0.31163374 0.80707252
0.12748696 -0.31163496 0.8070755
0.13135071 -0.31163609 0.80707848
0.1365024 -0.31163776 0.80708265
0.14165418 -0.31163934 0.80708688
0.146806 -0.31164089 0.80709106
0.15195787 -0.31164256 0.80709541
0.15710978 -0.31164414 0.80709934
0.16226175 -0.31164569 0.80710328
0.16741379 -0.3116473 0.80710757
0.17256585 -0.31164894 0.80711174
0.17771801 -0.31165048 0.80711603
0.18287021 -0.31165218 0.80712014
0.18802243 -0.31165373 0.80712426
0.19317468 -0.31165531 0.80712819
0.19832708 -0.31165692 0.80713248
0.20347944 -0.31165856 0.80713677
0.2086319 -0.31166011 0.80714095
0.21249628 -0.3116613 0.80714381
0.21636066 -0.31166255 0.80714685
0.22151327 -0.31166416 0.80715108
0.22666591 -0.31166568 0.80715531
0.23181857 -0.31166735 0.80715936
0.23697129 -0.3116689 0.80716354
0.2421241 -0.31167045 0.80716777
0.24727696 -0.31167215 0.80717188
0.25242981 -0.31167376 0.80717593
0.25758281 -0.31167534 0.80718017
0.26273581 -0.31167692 0.80718434
0.26788887 -0.31167853 0.80718845
0.27304196 -0.31168014 0.80719262
0.27819514 -0.31168172 0.80719674
0.28334832 -0.31168339 0.80720067
0.28850162 -0.31168491 0.8072049
0.29365498 -0.31168655 0.80720931
0.29751995 -0.31168768 0.80721217
0.30138505 -0.3116889 0.80721527
0.30653849 -0.31169054 0.80721951
0.31169203 -0.31169215 0.80722362
0.31684551 -0.31169373 0.80722779
0.32199916 -0.31169531 0.80723196
0.32715279 -0.31169689 0.8072359
0.33230653 -0.3116985 0.80724025
0.33746034 -0.31170011 0.8072443
0.34261414 -0.31170171 0.80724835
0.34776798 -0.31170329 0.80725259
0.35292196 -0.31170496 0.80725676
0.35807598 -0.31170651 0.80726087
0.36322999 -0.31170812 0.80726516
0.36838406 -0.31170976 0.80726922
0.3735382 -0.31171131 0.80727327
0.37825009 -0.31127289 0.80725002
0.38171184 -0.31215379 0.80730706
0.38642374 -0.31171528 0.8072837
0.39157811 -0.31171688 0.80728781
0.39673251 -0.31171849 0.80729192
0.40188685 -0.31172016 0.80729592
0.40704143 -0.31172171 0.80730015
0.41219589 -0.31172332 0.80730438
0.4173505 -0.31172493 0.80730861
0.42250514 -0.31172645 0.80731267
0.4276599 -0.31172812 0.80731678
0.43281466 -0.31172976 0.80732083
0.43796939 -0.31173128 0.80732507
0.44312429 -0.31173289 0.80732936
0.44827914 -0.31173453 0.80733341
0.4534342 -0.31173608 0.8073377
0.45858914 -0.31173769 0.80734169
0.46329892 -0.31129923 0.80731821
0.46676716 -0.31218016 0.80737549
0.47147697 -0.31174171 0.80735219
0.47663215 -0.31174335 0.80735624
0.48178735 -0.3117449 0.80736041
0.48694265 -0.31174648 0.80736452
0.492098 -0.31174806 0.80736846
0.49725345 -0.31174973 0.80737275
0.50240892 -0.31175128 0.80737692
0.50756443 -0.31175286 0.80738109
0.51271999 -0.31175449 0.80738515
0.51787561 -0.31175604 0.80738932
0.52303135 -0.31175765 0.80739343
0.5281871 -0.31175932 0.80739754
0.53334296 -0.31176093 0.80740184
0.53849858 -0.31176245 0.80740607
0.5436545 -0.31176412 0.80741
0.54752147 -0.31176528 0.80741316
0.5513885 -0.31176648 0.80741638
0.55654442 -0.31176808 0.80742043
0.56170052 -0.31176975 0.80742443
0.56685662 -0.31177136 0.80742884
0.5720129 -0.31177288 0.80743283
0.57716912 -0.31177455 0.80743712
0.58232546 -0.31177613 0.80744117
0.58748186 -0.31177771 0.80744541
0.59263802 -0.31177935 0.8074494
0.59779453 -0.31178093 0.80745357
0.60295117 -0.31178251 0.8074578
0.60810769 -0.31178409 0.80746186
0.61326414 -0.3117857 0.80746609
0.6184209 -0.31178728 0.80747014
0.62357754 -0.31178886 0.80747437
0.62828326 -0.31135038 0.80745077
0.63176382 -0.31223148 0.80750817
0.63646948 -0.31179294 0.80748463
0.64162642 -0.31179458 0.8074888
0.64678335 -0.31179604 0.80749297
0.65194052 -0.31179774 0.80749691
0.6570974 -0.31179938 0.80750126
0.66225457 -0.31180087 0.80750537
0.6674118 -0.31180251 0.8075096
0.67256904 -0.31180415 0.80751383
0.67772621 -0.31180573 0.80751777
0.68288356 -0.3118073 0.80752194
0.68804079 -0.31180891 0.80752611
0.69319832 -0.31181052 0.80753028
0.69835591 -0.31181213 0.80753446
0.70351338 -0.31181371 0.80753845
0.70821714 -0.31137517 0.80751508
0.71170348 -0.31225625 0.80757231
0.7164076 -0.31181771 0.80754906
0.72156513 -0.31181934 0.80755299
0.7267229 -0.31182095 0.80755717
0.73188066 -0.31182253 0.80756134
0.73703861 -0.31182408 0.80756545
0.74219656 -0.31182575 0.80756974
0.74735451 -0.31182733 0.8075738
0.75251251 -0.31182891 0.80757785
0.75767058 -0.31183055 0.80758214
0.76282883 -0.31183213 0.80758619
0.76798689 -0.31183368 0.80759037
0.77314508 -0.31183535 0.80759454
0.7783035 -0.3118369 0.80759883
0.78346187 -0.31183857 0.80760282
0.78862023 -0.31184018 0.807607
0.79332185 -0.31140155 0.80758339
0.79681468 -0.31228274 0.80764085
0.80151647 -0.31184414 0.80761737
0.80667496 -0.31184566 0.80762148
0.81183368 -0.31184742 0.80762571
-0.81284696 -0.30738991 0.80607468
-0.80770665 -0.30739149 0.80607897
-0.80256593 -0.30739304 0.80608302
-0.79742539 -0.30739465 0.80608708
-0.79228473 -0.30739623 0.80609131
-0.78714424 -0.30739784 0.80609554
-0.78200334 -0.30739936 0.80609941
-0.77686262 -0.30740094 0.80610365
-0.77172178 -0.30740252 0.80610776
-0.76658094 -0.30740413 0.80611193
-0.76143992 -0.30740565 0.80611598
-0.7562989 -0.30740723 0.8061201
-0.75244331 -0.30740845 0.80612332
-0.74858743 -0.30740958 0.80612636
-0.74344635 -0.30741119 0.80613059
-0.73830509 -0.30741271 0.80613458
-0.73316377 -0.30741429 0.80613869
-0.72802263 -0.30741593 0.80614281
-0.7228812 -0.30741745 0.80614698
-0.71773982 -0.30741903 0.80615103
-0.71259838 -0.30742067 0.8061552
-0.70745695 -0.30742225 0.80615944
-0.70231545 -0.30742374 0.80616349
-0.69717377 -0.30742535 0.80616766
-0.6920321 -0.30742687 0.80617177
-0.68689042 -0.30742851 0.80617589
-0.68174869 -0.30743006 0.80618012
-0.67660695 -0.30743167 0.80618405
-0.67146504 -0.30743325 0.80618829
-0.66632307 -0.3074348 0.8061924
-0.66246665 -0.30743599 0.80619562
-0.65861017 -0.30743715 0.8061986
-0.65346807 -0.30743873 0.80620271
-0.64832598 -0.30744031 0.80620688
-0.64318383 -0.30744189 0.80621094
-0.63804168 -0.30744347 0.80621517
-0.6328994 -0.30744505 0.80621922
-0.62775701 -0.30744657 0.80622333
-0.62261474 -0.30744818 0.80622756
-0.61747223 -0.30744976 0.8062315
-0.6123299 -0.30745137 0.80623585
-0.60718733 -0.30745289 0.8062399
-0.6020447 -0.30745444 0.80624402
-0.59690225 -0.30745611 0.80624825
-0.59175944 -0.3074576 0.80625236
-0.58661669 -0.30745924 0.80625653
-0.58147407 -0.30746078 0.80626065
-0.57633108 -0.30746233 0.8062647
-0.572474 -0.30746353 0.8062678
-0.56861675 -0.30746475 0.80627084
-0.56347382 -0.30746627 0.80627495
-0.55833077 -0.30746785 0.80627918
-0.55318779 -0.30746949 0.80628341
-0.54804456 -0.30747104 0.80628735
-0.54290146 -0.30747262 0.80629158
-0.53775823 -0.3074742 0.80629575
-0.53261495 -0.30747581 0.80629975
-0.52747154 -0.30747736 0.80630392
-0.5223282 -0.30747896 0.80630827
-0.51718473 -0.30748048 0.80631226
-0.51204127 -0.30748206 0.80631638
-0.50689769 -0.30748367 0.80632055
-0.50175411 -0.30748522 0.80632466
-0.49661049 -0.3074868 0.80632877
-0.49146682 -0.30748838 0.80633295
-0.48632294 -0.30748993 0.80633706
-0.48246518 -0.30749109 0.8063401
-0.4786073 -0.30749235 0.8063432
-0.47346339 -0.30749387 0.80634731
-0.46831945 -0.30749547 0.80635154
-0.46317545 -0.30749702 0.8063556
-0.45803139 -0.30749857 0.80635971
-0.4528873 -0.30750018 0.80636394
-0.44774315 -0.30750176 0.80636793
-0.44259897 -0.30750337 0.80637217
-0.4374547 -0.30750489 0.80637634
-0.43231043 -0.30750653 0.80638039
-0.42716607 -0.30750808 0.80638456
-0.42202163 -0.30750969 0.80638874
-0.41687721 -0.30751124 0.80639285
-0.41173264 -0.30751282 0.80639702
-0.40658808 -0.30751437 0.80640113
-0.40144345 -0.30751598 0.80640537
-0.3962988 -0.30751753 0.80640942
-0.39244023 -0.30751875 0.80641258
-0.38858163 -0.30751991 0.80641556
-0.38343683 -0.30752146 0.80641973
-0.37829196 -0.30752307 0.8064239
-0.37314701 -0.30752465 0.80642796
-0.36800209 -0.3075262 0.80643213
-0.36285704 -0.30752778 0.80643624
-0.35771197 -0.30752936 0.80644035
-0.35256687 -0.30753094 0.80644464
-0.34742177 -0.30753252 0.80644876
