# .PCD v0.7 - Point Cloud Data file format
VERSION 0.7
FIELDS x y z
SIZE 4 4 4
TYPE F F F
COUNT 1 1 1
WIDTH 1374
HEIGHT 1
VIEWPOINT 0 0 0 1 0 0 0
POINTS 1374
DATA ascii
-0.00879425 0.056178257 0.4388198
-0.021088192 0.064337149 0.43500018
-0.017316079 0.062729515 0.43662879
-0.013869929 0.06171988 0.43827912
-0.025460828 0.069902301 0.43500003
-0.022158159 0.067859039 0.43625328
-0.018451851 0.06697651 0.4381825
-0.030397672 0.074842386 0.435
-0.02707223 0.073041081 0.43582627
-0.023424938 0.072089538 0.4381122
-0.031798366 0.07813663 0.43562421
-0.028027279 0.07725209 0.43767276
-0.02493236 0.075835824 0.4390001
-0.036354195 0.083572671 0.43540782
-0.032665748 0.082473189 0.43729413
-0.029193033 0.081332326 0.43875274
-0.04069427 0.088870257 0.43517315
-0.037476107 0.08762373 0.43711156
-0.03399884 0.086307518 0.43853092
-0.04528657 0.094524287 0.435
-0.042093664 0.092861421 0.43601239
-0.038707662 0.091975741 0.43837789
-0.050145049 0.099542774 0.43500003
-0.046922535 0.097889178 0.43582726
-0.043076571 0.097206332 0.43785924
-0.039929923 0.095472604 0.43900004
-0.051641867 0.1031945 0.43591481
-0.047839176 0.10201763 0.437736
-0.044352893 0.10086827 0.43892497
-0.056595374 0.10807361 0.43571407
-0.052875265 0.10722567 0.43788478
-0.049685057 0.10565309 0.4390001
-0.060625091 0.11325172 0.43517455
-0.057532895 0.11247554 0.43690738
-0.054487579 0.11122838 0.43890178
-0.065739781 0.11904868 0.4352425
-0.062363137 0.11755874 0.43620425
-0.058483489 0.11708538 0.43813595
-0.070668213 0.12480775 0.435
-0.06724558 0.12278458 0.43630859
-0.063352376 0.12187209 0.43839988
-0.059858877 0.12040012 0.43900001
-0.075697273 0.12972614 0.43499997
-0.07202778 0.12802039 0.4358342
-0.067983747 0.12708834 0.43810269
-0.064841114 0.12538563 0.43900004
-0.080530152 0.134535 0.43499997
-0.077088334 0.13294375 0.435803
-0.072680108 0.13208692 0.43770498
-0.069596894 0.13066247 0.4390001
-0.081678204 0.13815178 0.4356792
-0.077784479 0.13712116 0.43759096
-0.074265994 0.13588585 0.43879151
-0.086170651 0.14333142 0.43541777
-0.08263965 0.1423942 0.4371824
-0.079210877 0.14103323 0.43874553
-0.091316603 0.14893259 0.43528253
-0.087489046 0.147477 0.43673381
-0.08384981 0.14645541 0.43871585
-0.09591794 0.15393548 0.43530658
-0.092452146 0.1526541 0.43679953
-0.088634737 0.15174673 0.43844703
-0.10078128 0.15906665 0.43537506
-0.097379908 0.15769221 0.43700665
-0.093319483 0.15650056 0.43862462
0.16881759 -0.15127683 0.4403573
0.17228998 -0.15263571 0.44201255
0.17610836 -0.15424177 0.44379082
0.16403525 -0.14614952 0.44020411
0.16767502 -0.14744492 0.44179907
0.17128389 -0.14825679 0.44359642
0.15972267 -0.14076853 0.44000003
0.16288891 -0.14225009 0.44135684
0.16679408 -0.1429216 0.44337264
0.158163 -0.13686797 0.44082943
0.16197114 -0.13793054 0.44303265
0.16549383 -0.13970718 0.44400007
0.15334736 -0.1317728 0.44062442
0.15721069 -0.13259575 0.44260916
0.16050607 -0.13407274 0.44385725
0.14878035 -0.12663752 0.44073334
0.1521157 -0.12751615 0.44236195
0.15597178 -0.12874442 0.44371665
0.1440893 -0.12145777 0.44028369
0.14723456 -0.12253822 0.44214585
0.15089683 -0.12396422 0.44395366
0.13947268 -0.11580058 0.44009528
0.14270702 -0.11732901 0.44157735
0.14627613 -0.1183509 0.44342673
0.13451689 -0.11084686 0.44
0.138008 -0.11225831 0.44178942
0.14171369 -0.11351338 0.44333145
0.12976111 -0.10561204 0.44000003
0.13303415 -0.10715026 0.44133982
0.13654776 -0.1081818 0.44335133
0.12820633 -0.10208705 0.4409754
0.13200147 -0.10290662 0.44319537
0.12410845 -0.096623011 0.4407917
0.12725422 -0.097744569 0.44259772
0.1305965 -0.099118337 0.44400015
0.11899219 -0.091111802 0.44025815
0.12256499 -0.092360243 0.44191661
0.12581083 -0.093454033 0.44381052
0.11419401 -0.08612866 0.44014582
0.11757062 -0.087418556 0.44160509
0.12119319 -0.088271335 0.44327465
0.10937354 -0.080990724 0.44009668
0.11268172 -0.082379922 0.44162863
0.11664978 -0.083482333 0.44345176
0.10451297 -0.076064289 0.43999988
0.10765901 -0.077237405 0.44109225
0.1117781 -0.078233108 0.44340843
0.099799611 -0.070634015 0.44000003
0.10288139 -0.072119169 0.44093889
0.10691172 -0.072916962 0.44291729
0.11006499 -0.074877776 0.44400004
0.09860985 -0.067084402 0.44083366
0.10204728 -0.067814521 0.44283679
0.10559432 -0.069570117 0.44400015
0.093686774 -0.061461687 0.44050008
0.097218312 -0.062810235 0.44234923
0.10098346 -0.064497776 0.44395012
0.088920832 -0.056513298 0.44029486
0.09244369 -0.057453081 0.44209966
0.095802583 -0.058891393 0.44351289
0.084344745 -0.051364608 0.44034144
0.087582119 -0.052396502 0.44206661
0.091266014 -0.053873617 0.44354811
0.079825252 -0.045649711 0.44000003
0.082988292 -0.047044557 0.44152567
0.086412571 -0.04847309 0.44355294
0.078464083 -0.041770179 0.44079778
0.081571572 -0.042693663 0.44273114
0.073197238 -0.036580794 0.44099462
0.077040628 -0.037768558 0.4427858
0.080550931 -0.039421696 0.44400004
0.068977736 -0.031520814 0.44052318
0.072430477 -0.032517806 0.44288746
0.075805224 -0.03413929 0.44400018
0.064506121 -0.026097504 0.44034553
0.067617528 -0.027341738 0.44193327
0.071074225 -0.028735837 0.44389084
0.059455808 -0.021178782 0.44013143
0.062734693 -0.022168439 0.44149923
0.066409022 -0.022812501 0.44347027
0.05834005 -0.017284425 0.44105646
0.06199152 -0.017589135 0.44310209
0.065433979 -0.019412618 0.44400007
0.053985011 -0.011986901 0.44037825
0.05724746 -0.012467364 0.44262123
0.060689274 -0.014068842 0.44395849
0.049034722 -0.006622972 0.44031104
0.052697558 -0.0075785415 0.44184247
0.055721123 -0.0082331635 0.44355407
0.044481326 -0.0015111424 0.44020373
0.047634188 -0.0027024637 0.44150454
0.051443752 -0.0034104546 0.44326156
0.039638747 0.0040809577 0.44
0.04287054 0.0024997361 0.44127509
0.046750642 0.0014901794 0.44328761
0.050317023 3.6205387e-05 0.44400004
0.034505129 0.0089357561 0.44003317
0.037907366 0.0075165969 0.44114679
0.041530028 0.0066784457 0.44304839
0.029889362 0.014312625 0.44000003
0.032921799 0.012512092 0.44113162
0.036898527 0.011805926 0.44310826
0.040304501 0.010317232 0.44400007
0.028589539 0.017821053 0.44066671
0.031953607 0.017010022 0.44301271
0.035200071 0.015253107 0.44400004
0.023674224 0.023205509 0.44045949
0.027099635 0.022040714 0.44217086
0.030451927 0.020647746 0.44389671
0.019043274 0.028260371 0.44047663
0.022481184 0.027264304 0.44207537
0.025790082 0.026119012 0.44357714
0.01435202 0.033795264 0.44014889
0.017685065 0.032382291 0.44182757
0.021047305 0.031564694 0.44360033
0.009133948 0.038829125 0.44027591
0.012782399 0.037409417 0.44143584
0.016442584 0.03652598 0.44346598
0.0045015751 0.043807335 0.44007677
0.007920431 0.042382471 0.44139293
0.011499604 0.041930534 0.4434211
-0.00030995856 0.049052708 0.44
0.0031295142 0.047584906 0.44139186
0.0069674561 0.046858706 0.44323164
0.010005145 0.045416791 0.44400007
-0.0053828098 0.054128878 0.44000003
-0.0018321978 0.052641369 0.4411675
0.0022264749 0.051835887 0.44318441
0.0056860154 0.050459076 0.44400004
-0.010392251 0.05956991 0.43999988
-0.0068147373 0.057687029 0.44110289
-0.0029511203 0.05712932 0.4430497
-0.015052934 0.06499508 0.44000003
-0.011599236 0.063073978 0.44099075
-0.0076139234 0.062203027 0.44292712
-0.0041755033 0.060860991 0.44395012
-0.016254481 0.068283185 0.44040558
-0.01247913 0.067388944 0.44270179
-0.0090854093 0.065874077 0.44400015
-0.021234903 0.073291719 0.44049299
-0.017393341 0.072497502 0.44237804
-0.01388326 0.071091294 0.44376099
-0.025805721 0.078771353 0.44010395
-0.022174597 0.077594027 0.44181058
-0.01871831 0.076930471 0.44369057
-0.03035349 0.084514834 0.43999988
-0.026918864 0.082783505 0.44143009
-0.023121875 0.081857011 0.44323432
-0.035241302 0.089622475 0.44
-0.031930793 0.087991618 0.44122738
-0.028004387 0.086650439 0.44327155
-0.024547895 0.085034765 0.44400004
-0.036431007 0.093157724 0.44073027
-0.032969609 0.092165783 0.44279978
-0.040928293 0.098458953 0.44036266
-0.037438564 0.097492687 0.44230184
-0.034025401 0.096072741 0.44390213
-0.046260308 0.1039777 0.44031173
-0.042188033 0.10268275 0.44186655
-0.038593452 0.10178363 0.44364318
-0.050920453 0.10875019 0.44021955
-0.047333352 0.10764468 0.44189587
-0.043461237 0.10654312 0.443766
-0.055172838 0.11439263 0.43999994
-0.052189831 0.11261734 0.44134706
-0.048280053 0.11214225 0.44335955
-0.056382317 0.11804686 0.44084844
-0.052846115 0.11703871 0.44307494
-0.049576703 0.11545473 0.4440001
-0.061687883 0.12347546 0.4407393
-0.057772703 0.12224773 0.44276106
-0.054307673 0.12078078 0.44384223
-0.066224307 0.12880319 0.44043162
-0.062653244 0.12743358 0.44212237
-0.059353273 0.12606014 0.44388252
-0.071171567 0.13425186 0.44021821
-0.067487344 0.13264203 0.44165638
-0.063693918 0.13186875 0.44360995
-0.076120123 0.13944808 0.44022489
-0.072305545 0.13769299 0.44153556
-0.06819725 0.13685916 0.44338506
-0.080835819 0.14474092 0.44000003
-0.077335186 0.14282559 0.44143707
-0.073515691 0.14169729 0.4435252
-0.085676543 0.14994173 0.44000003
-0.082168855 0.14799784 0.44111627
-0.078515463 0.14718096 0.44320273
-0.086817957 0.15310943 0.44083732
-0.083003409 0.15224807 0.44298813
-0.07997673 0.1505845 0.44400004
-0.095663719 0.15993544 0.44000003
-0.092151143 0.15844087 0.44083926
-0.087943636 0.15713872 0.44271743
-0.084321238 0.15568618 0.44373694
-0.092764452 0.1623652 0.44249213
-0.089334846 0.16066907 0.44400004
0.17921712 -0.15585753 0.44507682
0.17431816 -0.15047288 0.44500002
0.17769487 -0.15242045 0.44601139
0.18167771 -0.15262833 0.44825152
0.17329235 -0.14682871 0.44588313
0.17718236 -0.14781471 0.44791564
0.18036032 -0.14939187 0.44875002
0.16861075 -0.14137489 0.44549343
0.17217889 -0.14255504 0.44730151
0.17600201 -0.14446738 0.44899997
0.16395192 -0.13627474 0.44532853
0.16760427 -0.13756391 0.44696096
0.17106266 -0.13872814 0.44864699
0.15930407 -0.13079521 0.44519049
0.16259775 -0.13235788 0.4466877
0.16635129 -0.13360518 0.44832149
0.15409362 -0.12565041 0.44510531
0.15768187 -0.1271555 0.44614524
0.16142832 -0.12835833 0.44829839
0.14983015 -0.1209558 0.44499999
0.15276441 -0.12238802 0.44579613
0.15707149 -0.12276591 0.44788602
0.16007788 -0.1243645 0.44900003
0.14845486 -0.11700896 0.44570631
0.15257379 -0.11750726 0.44772384
0.15591414 -0.11910693 0.44863045
0.13989341 -0.11042193 0.44500002
0.14327581 -0.11187191 0.44558439
0.14738509 -0.1127447 0.44735423
0.15092038 -0.11423481 0.44857439
0.13853538 -0.10683671 0.44549644
0.14247453 -0.10753972 0.44733864
0.14590912 -0.10891227 0.44860595
0.13393371 -0.10151235 0.44516429
0.13754201 -0.10246312 0.44711527
0.14127666 -0.10354979 0.44856229
0.12919672 -0.096202716 0.44499987
0.13255972 -0.097375274 0.44665289
0.1360824 -0.098640837 0.44855306
0.1247424 -0.090207346 0.44499999
0.12798902 -0.092137456 0.44632593
0.1314557 -0.093381166 0.44824654
0.11969208 -0.085153706 0.44500002
0.12319224 -0.086799726 0.44627595
0.12672774 -0.08820083 0.44792527
0.13023145 -0.089561328 0.44900003
0.11817567 -0.081831351 0.44581977
0.12180527 -0.082919143 0.44788691
0.11342172 -0.076680958 0.44561768
0.11718814 -0.077880621 0.44757524
0.12032636 -0.079172768 0.44890481
0.10900584 -0.071609378 0.44559437
0.11234517 -0.072723083 0.44749177
0.11593061 -0.074563131 0.44885197
0.104025 -0.06617514 0.44541773
0.10735082 -0.067684457 0.44703683
0.11084966 -0.069388375 0.44877431
0.09915518 -0.060850121 0.44543621
0.10257398 -0.062335219 0.44681227
0.10614228 -0.063588135 0.44841039
0.094440408 -0.055553794 0.44500002
0.097794317 -0.057195812 0.44656417
0.10154889 -0.058096215 0.44850063
0.089390069 -0.050500151 0.44500002
0.09301313 -0.052077617 0.44602889
0.096809953 -0.052872345 0.44835803
0.088374987 -0.046935864 0.44585362
0.091974892 -0.047676083 0.44765362
0.095289312 -0.049497206 0.44900003
0.083857425 -0.041823566 0.44551012
0.087266326 -0.042804901 0.44734177
0.090750277 -0.043798253 0.44900015
0.078828722 -0.035960406 0.44508496
0.082484722 -0.037608784 0.44680977
0.08575049 -0.038462024 0.44873321
0.074479535 -0.030911269 0.44499987
0.077816658 -0.032341711 0.44607025
0.081632502 -0.03319034 0.44804701
0.069850095 -0.025472581 0.44500005
0.072897278 -0.027050721 0.44588444
0.077161454 -0.02785149 0.44773728
0.080366239 -0.028988091 0.44892603
0.068487957 -0.021711245 0.44570732
0.072169185 -0.022783482 0.44779634
0.075816348 -0.024502659 0.44899997
0.06397438 -0.016234647 0.4451513
0.067413829 -0.017398681 0.44708535
0.070966095 -0.019131877 0.44882503
0.059439674 -0.010779421 0.44511101
0.062679052 -0.012109477 0.44648832
0.066065796 -0.012762101 0.44824865
0.054759208 -0.0050173569 0.44500002
0.057856493 -0.0069162771 0.44623324
0.061640628 -0.0077842493 0.4482702
0.05338645 -0.0019710525 0.44543403
0.057099033 -0.0026653421 0.44795495
0.060347162 -0.0042299549 0.44900006
0.048525475 0.0032475044 0.44561493
0.052348949 0.0020593582 0.44714603
0.055743124 0.0007374211 0.44875464
0.04358675 0.0079969782 0.44600579
0.047278017 0.0070242523 0.44762206
0.051121175 0.0056871981 0.448544
0.038657133 0.0136146 0.44545421
0.042383514 0.012246327 0.44743434
0.045639027 0.011062523 0.449
0.033904288 0.018631224 0.44527242
0.037571035 0.017407971 0.4469125
0.041270867 0.016121328 0.44873419
0.028944381 0.023820663 0.44531721
0.032682598 0.022649134 0.44691905
0.036611822 0.021413017 0.44836888
0.024457203 0.029545959 0.44499999
0.027882082 0.02794867 0.44665977
0.031594582 0.027016301 0.44847879
0.023025019 0.033111326 0.44594067
0.026933869 0.032087781 0.44807947
0.014356538 0.039743491 0.44500002
0.017876921 0.03832053 0.44582117
0.022062283 0.037122741 0.44760627
0.025742987 0.035495967 0.44900012
0.013302143 0.043315139 0.4458276
0.017184883 0.04225437 0.44770563
0.020669013 0.040547632 0.44890636
0.0083184242 0.048747096 0.44539967
0.012154663 0.047424335 0.44731525
0.01588933 0.045977473 0.44867584
0.003728736 0.053598773 0.44532326
0.0075609572 0.052502431 0.4470475
0.010700943 0.051007055 0.44849989
-0.00086917542 0.058305405 0.44539142
0.0026164502 0.057420488 0.4469744
0.0060521457 0.056745436 0.44855338
-0.0056450628 0.063789457 0.44513941
-0.0020086637 0.062643148 0.44674271
0.0017575582 0.061720543 0.44842604
0.0050220857 0.060497008 0.44900003
-0.010457908 0.068910658 0.44503567
-0.0070526046 0.067656159 0.4464387
-0.0032003182 0.066699833 0.44824368
-0.015451823 0.07416907 0.44500005
-0.012015526 0.072793007 0.44622958
-0.0081257308 0.071854815 0.44818947
-0.016511383 0.07795465 0.4461067
-0.012905556 0.077143848 0.44798651
-0.0094709657 0.075264446 0.449
-0.021387191 0.083530441 0.44559309
-0.017805485 0.082179785 0.44745818
-0.014116256 0.080681808 0.44900015
-0.026633095 0.088621095 0.44565177
-0.022617724 0.087436847 0.44712946
-0.019314829 0.085897498 0.44858691
-0.030907841 0.093315616 0.4453893
-0.027605379 0.092507824 0.44700614
-0.023781046 0.091530435 0.44857433
-0.035425331 0.099504836 0.44500002
-0.032346401 0.09779489 0.44624144
-0.028552983 0.09697853 0.44829479
-0.03683028 0.10305785 0.44557497
-0.033070974 0.10227808 0.44784465
-0.029920068 0.10056113 0.44900006
-0.045525998 0.10977256 0.44500002
-0.042055741 0.10810624 0.44549093
-0.037738718 0.1074451 0.44747514
-0.034653444 0.10566421 0.44843748
-0.046335232 0.11329594 0.44549969
-0.042496383 0.11233245 0.44723213
-0.038544152 0.11109972 0.44876552
-0.051334601 0.11885976 0.44513413
-0.047440656 0.1175725 0.4469077
-0.043405108 0.11636496 0.44859105
-0.05606965 0.12417497 0.44522014
-0.052205283 0.12260889 0.44649756
-0.048354205 0.12157293 0.44839698
-0.060812272 0.1297164 0.44500008
-0.057269786 0.12777378 0.44622198
-0.053150352 0.1268979 0.44835797
-0.06153008 0.1330312 0.44602183
-0.057903886 0.13216262 0.44800839
-0.054670751 0.13042712 0.44900003
-0.066178843 0.13828917 0.44559819
-0.062688775 0.13728406 0.44755569
-0.059476599 0.13597222 0.44889668
-0.075106524 0.14442611 0.44500002
-0.071691133 0.14305967 0.44568628
-0.06802725 0.14245969 0.44763106
-0.064238526 0.14062007 0.44876194
-0.076323047 0.14794855 0.44569525
-0.072698884 0.1473486 0.44747582
-0.06950067 0.14618897 0.44882059
-0.080948815 0.15360464 0.44529244
-0.077507205 0.15243138 0.44733146
-0.073757015 0.15110417 0.44868353
-0.086354904 0.15900609 0.44536591
-0.082394719 0.15768974 0.44682622
-0.078810513 0.15631585 0.44857174
-0.090761736 0.16371182 0.44506368
-0.087334648 0.16261925 0.44685102
-0.083652504 0.16175561 0.44851375
0.18807605 -0.15714437 0.4508974
0.19204849 -0.15807535 0.45297208
0.18359479 -0.1514198 0.45047781
0.18739402 -0.15275107 0.45280343
0.19063406 -0.15443765 0.45400003
0.17897318 -0.1460924 0.45036182
0.18250348 -0.14751107 0.45210233
0.18546836 -0.14922458 0.45344839
0.17411532 -0.14108346 0.45032251
0.17776728 -0.14230783 0.45204848
0.18119347 -0.14366418 0.4534508
0.16975686 -0.13502456 0.45000002
0.17295532 -0.13706355 0.45149446
0.17639154 -0.13835874 0.45352536
0.16481189 -0.1306442 0.45000002
0.16819155 -0.13177833 0.45104575
0.17168552 -0.13290443 0.45284489
0.16328028 -0.12708738 0.45076543
0.16703337 -0.12779452 0.4529407
0.17069329 -0.12959583 0.45400003
0.15919571 -0.12146783 0.45002627
0.16234702 -0.12257048 0.45240024
0.16568145 -0.12430373 0.45368981
0.15438317 -0.11552765 0.44999993
0.15773632 -0.11717302 0.45129237
0.16100232 -0.11844553 0.45346749
0.14904805 -0.11069553 0.45015001
0.15292203 -0.1123396 0.45138821
0.15665594 -0.11313748 0.45337453
0.14438356 -0.10509207 0.45000002
0.14791496 -0.10703707 0.45127413
0.15176897 -0.10801421 0.45321867
0.15523587 -0.10970898 0.45400006
0.14291292 -0.10184958 0.4507733
0.14699091 -0.10273486 0.45280486
0.15025659 -0.10429317 0.45400003
0.13489901 -0.095844634 0.45000002
0.13793176 -0.097000815 0.45104995
0.1422497 -0.09810707 0.4529458
0.1457991 -0.099451378 0.45380002
0.13335176 -0.092004247 0.45078105
0.13715106 -0.092870317 0.45306402
0.14069854 -0.094747797 0.45400003
0.12856054 -0.086522192 0.45071679
0.13213469 -0.08773911 0.45227844
0.13569608 -0.089323431 0.45384869
0.12380295 -0.081640393 0.45039487
0.12744382 -0.082486123 0.45229033
0.13085426 -0.083603382 0.45389614
0.11895612 -0.075937122 0.45028386
0.12264707 -0.077510759 0.45199618
0.12624155 -0.078545175 0.4535951
0.11392815 -0.070588969 0.45043764
0.11761971 -0.072311312 0.45151144
0.12140425 -0.073637612 0.4532932
0.109253 -0.065701596 0.45022723
0.11260124 -0.067221574 0.45139971
0.11672536 -0.068351284 0.45343488
0.10498611 -0.06055836 0.45000002
0.10816768 -0.062096775 0.45098436
0.11188683 -0.062881738 0.45321381
0.1154882 -0.064779408 0.45400003
0.10353753 -0.056939576 0.45056593
0.10709526 -0.057834141 0.45249137
0.11043385 -0.059328929 0.45400003
0.098598324 -0.051623315 0.45042187
0.10230261 -0.052788481 0.45234871
0.10553768 -0.053731162 0.4540002
0.094316341 -0.046380375 0.45039368
0.097512014 -0.047724418 0.45200047
0.1007233 -0.048748598 0.45367938
0.089214966 -0.040550292 0.4502162
0.092714198 -0.042234022 0.45157138
0.09634462 -0.043738209 0.45345509
0.084557787 -0.035110522 0.45000002
0.087778457 -0.037013095 0.45111433
0.091398656 -0.037961192 0.45327431
0.083870791 -0.031825174 0.45065147
0.087230653 -0.03267308 0.45288628
0.090461895 -0.034580845 0.45400003
0.079052046 -0.025942644 0.45012113
0.082462393 -0.027536228 0.45195532
0.085722968 -0.028681498 0.45366681
0.074008159 -0.020931669 0.45011419
0.077560455 -0.022552973 0.45144194
0.081020959 -0.023503195 0.45364392
0.069731608 -0.015789984 0.44999987
0.072893046 -0.017318271 0.45125064
0.07668408 -0.018104745 0.45323437
0.068436317 -0.012031836 0.45081359
0.071864903 -0.012905606 0.45280147
0.075004466 -0.014601916 0.45400003
0.06361752 -0.0065563326 0.45029351
0.067289241 -0.007454894 0.45244944
0.070680067 -0.0092158932 0.45400003
0.059264317 -0.0013806333 0.45009819
0.062589146 -0.0024766587 0.45165315
0.065847732 -0.003655076 0.45342314
0.054392356 0.0039958721 0.44999987
0.057730872 0.0024565258 0.4510746
0.061593752 0.0018491611 0.45317221
0.049078599 0.0090611288 0.45007685
0.052734479 0.0076982887 0.45121959
0.056904174 0.0068438468 0.45314389
0.060375109 0.0051928726 0.45400003
0.044198599 0.014306067 0.4499999
0.047755271 0.012739373 0.45095453
0.051918168 0.011895249 0.45302171
0.055130631 0.010348726 0.45400003
0.039323658 0.019748339 0.45000002
0.042874377 0.018050522 0.45073918
0.047271632 0.017286539 0.45268694
0.050714228 0.015925465 0.45400003
0.034946162 0.024858765 0.45000002
0.037971366 0.023366457 0.45069405
0.042039204 0.022093838 0.45261827
0.045815717 0.020922063 0.45386371
0.033456489 0.028079594 0.45020518
0.037333772 0.027395278 0.45230928
0.040685903 0.025678968 0.45380023
0.029160514 0.033373859 0.45024133
0.032605164 0.03245575 0.45175108
0.035963897 0.031576306 0.45330045
0.023983236 0.038891338 0.45031685
0.02767057 0.037449244 0.45165062
0.031723138 0.036455393 0.45341486
0.019263769 0.044031121 0.4500832
0.022748632 0.042654775 0.45170325
0.026370224 0.041329369 0.45359728
0.014070113 0.049432363 0.45003837
0.017783221 0.047814533 0.4510954
0.021420818 0.046967227 0.45309407
0.0093247984 0.0548217 0.45025
0.012656222 0.052739739 0.45102379
0.017071722 0.05195421 0.45320517
0.020535437 0.050122444 0.45400003
0.0079844845 0.058036417 0.4508312
0.011920048 0.056926843 0.45314476
0.015382962 0.055278294 0.45400006
0.0033697595 0.063201867 0.45047355
0.0067809299 0.062091228 0.45237938
0.010230486 0.060434151 0.45400003
-0.0013204863 0.068289265 0.45061249
0.0022823291 0.067115612 0.45219532
0.0054933615 0.066056371 0.45378396
-0.0063115014 0.07353016 0.45080024
-0.002699953 0.072200768 0.45240995
0.0012414027 0.070620082 0.45390931
-0.010973977 0.078811526 0.45027423
-0.0075436425 0.077482544 0.45196402
-0.0038686441 0.076005153 0.4539336
-0.016001947 0.084170021 0.45017663
-0.012325799 0.082680307 0.45144287
-0.0086592911 0.081925668 0.45347536
-0.02058319 0.089671955 0.45000002
-0.017298955 0.087739527 0.45130208
-0.01320208 0.08691024 0.45327041
-0.02204979 0.093157925 0.45087466
-0.018254304 0.091897793 0.45295313
-0.014795825 0.090632714 0.45400003
-0.02645685 0.098204389 0.45040774
-0.023183726 0.097344249 0.45234475
-0.019702947 0.095297538 0.45400012
-0.0308598 0.1038935 0.4504129
-0.027503308 0.10232417 0.45192817
-0.024038523 0.10136293 0.45380023
-0.035402786 0.10916797 0.45041379
-0.032218408 0.10753579 0.45183462
-0.028599206 0.10624292 0.4535453
-0.040273823 0.11451025 0.44999999
-0.036998954 0.11292283 0.45121258
-0.033526085 0.111882 0.45331344
-0.045307945 0.11976668 0.45000002
-0.041841242 0.11798482 0.45085233
-0.038169924 0.11693899 0.45285377
-0.046842065 0.12323057 0.45069087
-0.04289259 0.1221514 0.45266712
-0.039546113 0.12061644 0.45400015
-0.051597659 0.12849233 0.45059529
-0.047966268 0.12736668 0.4524574
-0.044640042 0.12571929 0.45400012
-0.056001488 0.13363764 0.45033872
-0.052515361 0.1325592 0.45217815
-0.048844032 0.1311139 0.45371944
-0.060716596 0.13931327 0.4503428
-0.05717618 0.13760298 0.45150322
-0.053512879 0.13671528 0.45354769
-0.0656996 0.1436867 0.4504447
-0.062186133 0.14265457 0.45165586
-0.058084175 0.14173593 0.45331621
-0.070429914 0.14911516 0.44999987
-0.067209303 0.14771889 0.45148617
-0.063197836 0.1468896 0.45342326
-0.05969597 0.14513744 0.45400003
-0.075478323 0.15463786 0.44999993
-0.072000347 0.1528343 0.45077148
-0.068208963 0.15209077 0.45297161
-0.064848445 0.15029329 0.45400003
-0.080593221 0.15992002 0.44999999
-0.076956302 0.15795766 0.45065776
-0.072735123 0.15737854 0.45267338
-0.069485277 0.15554962 0.45352009
-0.08169017 0.16297624 0.45078841
-0.07786864 0.16223276 0.45271897
-0.074401081 0.16067971 0.45373088
-0.078968823 0.16579694 0.45395145
0.19385606 -0.15674925 0.45526147
0.19751842 -0.1576905 0.45726874
0.20048803 -0.15862857 0.45893097
0.189134 -0.15115543 0.45532599
0.19257188 -0.15241255 0.45676661
0.19614221 -0.15367308 0.45847821
0.18434767 -0.14562899 0.45500001
0.18765865 -0.14722311 0.4566581
0.19139196 -0.14846046 0.45832434
0.17982933 -0.14030798 0.45499998
0.18304577 -0.14187656 0.4559449
0.18675481 -0.14323775 0.45804694
0.17832921 -0.13690346 0.45564276
0.18214145 -0.13780169 0.45756277
0.18522413 -0.13971083 0.45900002
0.17379914 -0.13179995 0.45555931
0.1773309 -0.13273628 0.45721659
0.18103808 -0.13378575 0.45877951
0.16909486 -0.12635104 0.45519346
0.17255804 -0.12758163 0.45696929
0.17598492 -0.12888989 0.4586249
0.16420849 -0.12070898 0.45503995
0.1676963 -0.12237059 0.45632252
0.1713734 -0.12296144 0.45830974
0.16317508 -0.11710589 0.45619431
0.16686542 -0.11797355 0.45820695
0.17034066 -0.11985318 0.45900002
0.15855712 -0.11177486 0.45561039
0.16200876 -0.11290034 0.45785147
0.16513143 -0.11464054 0.45900002
0.15374532 -0.10642688 0.45536119
0.15737166 -0.10768468 0.45700833
0.16067334 -0.1093913 0.45868427
0.14863858 -0.10100082 0.45511994
0.15242809 -0.10235605 0.45666862
0.15642489 -0.10378051 0.45852742
0.14371175 -0.095971435 0.45526668
0.14757101 -0.097525127 0.45677754
0.15146609 -0.098641001 0.45847616
0.13879223 -0.090915069 0.4552272
0.14246373 -0.092393152 0.4565534
0.14597891 -0.093316324 0.45839995
0.1342877 -0.085961491 0.45560008
0.13766518 -0.087378524 0.4567928
0.141775 -0.088866867 0.45827371
0.12968491 -0.080718987 0.45499998
0.13283607 -0.082239784 0.45640463
0.13621192 -0.083367884 0.45856988
0.12459486 -0.075361967 0.45499998
0.12799267 -0.076979041 0.45602044
0.1316108 -0.077978238 0.45780739
0.12306932 -0.071893163 0.4559114
0.12681752 -0.073143162 0.45792601
0.13015524 -0.074428782 0.45900002
0.1184081 -0.066730797 0.45573539
0.12225273 -0.067899719 0.45793
0.12569021 -0.06996081 0.45900005
0.11375216 -0.061342083 0.4555119
0.11712712 -0.06261199 0.45711702
0.12077563 -0.064364985 0.45892301
0.10871226 -0.056077171 0.45532718
0.11243962 -0.057530925 0.45694122
0.11605964 -0.05877449 0.45858327
0.10422379 -0.050669119 0.45516664
0.10778045 -0.052410409 0.45671198
0.11111394 -0.053331133 0.45853463
0.099513419 -0.045729604 0.45499998
0.10273454 -0.047065698 0.45616817
0.10675177 -0.048218049 0.45841131
0.098203562 -0.042207804 0.45574707
0.10227472 -0.04271717 0.45806673
0.10559749 -0.044642299 0.45900002
0.093602702 -0.036978159 0.45564994
0.097282693 -0.037914343 0.45741481
0.10067137 -0.038927495 0.45893326
0.08917775 -0.031376317 0.4550806
0.092599325 -0.032599099 0.45695296
0.096088141 -0.03376323 0.45881802
0.084275991 -0.025374472 0.45524999
0.087915629 -0.027057726 0.45651728
0.091425896 -0.028518645 0.45807412
0.083054677 -0.02206528 0.45613623
0.086595766 -0.022956481 0.4582645
0.078821816 -0.016923454 0.45570305
0.082126029 -0.017981589 0.45760301
0.085504778 -0.019323787 0.45900002
0.073787175 -0.011135332 0.45538357
0.077243157 -0.012724872 0.45692244
0.080747865 -0.014196243 0.45874989
0.069022246 -0.0053761629 0.45499998
0.07250113 -0.0073070829 0.45666119
0.075827524 -0.0083560776 0.45866656
0.067958549 -0.0022595292 0.45622569
0.071359947 -0.0031882483 0.45830274
0.063742191 0.002867003 0.45549601
0.06690605 0.0018305758 0.45795375
0.058620811 0.0086633693 0.45560053
0.06216374 0.007115162 0.45714879
0.065545768 0.0052475212 0.45877784
0.053651735 0.013719776 0.45551449
0.057232566 0.012482 0.4572193
0.060621336 0.011137065 0.45864579
0.048721328 0.019399526 0.4550285
0.052738678 0.017566361 0.45706907
0.056171168 0.01627912 0.45875546
0.044011321 0.023584923 0.45512721
0.047603641 0.022666372 0.45671186
0.051448472 0.020913515 0.45842522
0.039549824 0.029036747 0.45499995
0.042695839 0.027659968 0.45651808
0.046241481 0.026613871 0.45835713
0.038232695 0.032897409 0.45600551
0.041796982 0.032161761 0.4581112
0.029432939 0.039898425 0.45500001
0.032906581 0.038395651 0.45572105
0.037052527 0.037134305 0.4576897
0.040510841 0.035552081 0.45899993
0.028045503 0.042994 0.4558205
0.032231916 0.042165957 0.45780921
0.03576912 0.040435344 0.45900008
0.023396032 0.048188657 0.45565939
0.02695133 0.047184244 0.45750034
0.030683924 0.045710046 0.45899999
0.018925346 0.053660877 0.45539096
0.022459636 0.052339017 0.4572112
0.02563948 0.05131438 0.45881808
0.013632972 0.058755457 0.45531419
0.017457284 0.057369139 0.45673686
0.021064399 0.056321129 0.4588207
0.0086715342 0.063626297 0.45529127
0.01259722 0.062634982 0.45692167
0.016614562 0.061532471 0.45833835
0.0040445342 0.069124125 0.45504162
0.0076042772 0.067731053 0.45683712
0.011405393 0.066632308 0.45854992
-0.0005757318 0.07388521 0.45518863
0.0026668094 0.072703555 0.45644608
0.0065784324 0.071448237 0.45835197
-0.005432582 0.079487786 0.45499998
-0.0020381545 0.077763341 0.45618984
0.001915083 0.0769739 0.45834193
-0.0065603149 0.082971677 0.45587131
-0.002796411 0.082196362 0.45801312
0.00066888944 0.080460936 0.45900002
-0.011304772 0.088463038 0.45540038
-0.0077210045 0.087186597 0.45737135
-0.0043272395 0.085983835 0.4589524
-0.016369227 0.093679488 0.45534956
-0.012901346 0.092282772 0.45676872
-0.0092372689 0.090786934 0.45896864
-0.020984773 0.098987237 0.45536909
-0.017664446 0.097468488 0.45675662
-0.014011884 0.096305199 0.45854419
-0.025401955 0.10461158 0.45499998
-0.021967677 0.10267425 0.45674852
-0.018705029 0.10135354 0.45843416
-0.026957493 0.10796987 0.45605156
-0.02333991 0.10674303 0.45822537
-0.03135113 0.11305293 0.45558181
-0.028017182 0.11210123 0.45750037
-0.024633043 0.11024741 0.45900002
-0.036571018 0.11858879 0.45535687
-0.032694355 0.11756239 0.4570756
-0.029282343 0.11625957 0.45869341
-0.041490611 0.12419776 0.45499995
-0.037500676 0.12271445 0.45690024
-0.033906456 0.12151022 0.45847565
-0.045624599 0.12885591 0.45514539
-0.042269189 0.12750363 0.45682079
-0.038475063 0.12645873 0.45870721
-0.050342888 0.13427907 0.45499998
-0.047012068 0.13288265 0.45605737
-0.043579876 0.13216655 0.45822668
-0.051720206 0.13792141 0.45556155
-0.047922615 0.13718629 0.45771515
-0.04472575 0.1357314 0.45900005
-0.056707609 0.14373426 0.45573732
-0.05286077 0.14209042 0.45725933
-0.04937518 0.14084424 0.45889464
-0.061557885 0.14869609 0.45549616
-0.057769146 0.14715625 0.45713016
-0.054137375 0.14550936 0.45900008
-0.066065341 0.15364248 0.45559117
-0.062627792 0.15247074 0.45716774
-0.059091616 0.15113345 0.45860779
-0.070429049 0.15893507 0.45528123
-0.067382716 0.15754335 0.45661455
-0.064078547 0.15680715 0.45870721
-0.075924225 0.16402493 0.45499998
-0.072271347 0.16282313 0.45656922
-0.068248101 0.16148813 0.45828354
-0.07728675 0.16782735 0.45627287
-0.073368959 0.16663602 0.45817935
0.19950779 -0.15597743 0.45999998
0.20272912 -0.15702273 0.46141863
0.20632976 -0.15823282 0.46329564
0.19831827 -0.15162633 0.46118176
0.20204544 -0.15319529 0.46294397
0.19338857 -0.14696945 0.46076357
0.19678032 -0.14785384 0.46235636
0.20057772 -0.149422 0.46400005
0.18874709 -0.14182308 0.46066645
0.19204101 -0.14292631 0.46228236
0.19560489 -0.14457582 0.46357146
0.18430537 -0.13605976 0.46002364
0.18757987 -0.13768357 0.46206278
0.19090138 -0.13903171 0.46385711
0.17941269 -0.13081105 0.45999998
0.18287513 -0.13204949 0.46137041
0.18643542 -0.13368508 0.46349099
0.17444074 -0.12533829 0.45999998
0.17782043 -0.1272095 0.46071142
0.18177707 -0.12788227 0.46301758
0.17333128 -0.12190874 0.46058142
0.17722514 -0.12276632 0.46270421
0.18066972 -0.1246854 0.46394131
0.16858958 -0.11645403 0.46063957
0.17239161 -0.11787457 0.46245793
0.17581888 -0.11928307 0.46394745
0.16391961 -0.11152188 0.46017215
0.16742584 -0.11261858 0.46204427
0.17084356 -0.11411454 0.46355262
0.15948491 -0.10536072 0.4601
0.16261902 -0.10739329 0.46131808
0.16617543 -0.10807909 0.46347901
0.15797143 -0.10197733 0.46116346
0.16160147 -0.10334917 0.46321642
0.14966376 -0.095486894 0.45999998
0.15311129 -0.096959434 0.46105465
0.1568784 -0.098085217 0.46281818
0.14818108 -0.092133522 0.46087316
0.15202537 -0.09285678 0.46294126
0.15564604 -0.094717577 0.46400002
0.13921623 -0.085211128 0.46000001
0.142799 -0.086831056 0.46087441
0.14700884 -0.087871425 0.46290496
0.15075622 -0.089542262 0.46400008
0.13834701 -0.082040302 0.460843
0.14228323 -0.082780346 0.46288174
0.14519769 -0.084021933 0.46400002
0.13362353 -0.076769911 0.46039775
0.13746142 -0.077489279 0.46232775
0.14103504 -0.07891003 0.46385473
0.12860091 -0.071531571 0.4604696
0.13253388 -0.072731286 0.46225521
0.13615891 -0.073736347 0.46365401
0.12413555 -0.066099174 0.46027568
0.12754264 -0.067388006 0.46169421
0.13129334 -0.068348713 0.46359131
0.11964673 -0.061311461 0.46000001
0.12270573 -0.062286384 0.46126181
0.12663484 -0.063157901 0.46323746
0.11453979 -0.055492841 0.46000001
0.11779987 -0.057213116 0.4612745
0.12157948 -0.058585718 0.46305355
0.11317898 -0.051876653 0.46084163
0.11658818 -0.05297694 0.46280468
0.1085996 -0.046896763 0.46027529
0.11211587 -0.047623694 0.46228963
0.11541405 -0.048952688 0.46400002
0.10379589 -0.040926214 0.46021131
0.10739893 -0.042701505 0.46187532
0.11079603 -0.044061493 0.46328261
0.099281102 -0.035680491 0.45999998
0.10258383 -0.037244905 0.46136022
0.10616049 -0.038630247 0.46358648
0.094640613 -0.030560153 0.46000001
0.098038904 -0.032011576 0.461339
0.10142229 -0.033263464 0.4631432
0.093273789 -0.027088597 0.46081951
0.096777014 -0.028080123 0.46275827
0.08848761 -0.021467851 0.46057093
0.092185654 -0.022889338 0.46264091
0.095463566 -0.024615508 0.46400002
0.08430513 -0.016779175 0.46009782
0.087484732 -0.017382706 0.46195257
0.090581544 -0.018752571 0.46375006
0.079243071 -0.010689394 0.46023339
0.082828261 -0.012398312 0.46136138
0.086400345 -0.013550187 0.46320054
0.07450413 -0.0051864814 0.46000001
0.077861957 -0.0071265358 0.46121556
0.081569009 -0.0080921222 0.46322295
0.073536649 -0.0020995387 0.4607619
0.077147029 -0.0030167133 0.46302783
0.080417953 -0.0044788071 0.46400002
0.068625867 0.0034921772 0.46047026
0.072262377 0.0020894832 0.46215376
0.075469531 0.0011042523 0.46383333
0.064167224 0.008549951 0.46035275
0.067476153 0.0074480348 0.46234453
0.070849985 0.0056131263 0.46381825
0.059284359 0.0145486 0.46000001
0.062591419 0.012816433 0.4613159
0.066010103 0.011904739 0.46351039
0.054367639 0.019440908 0.46000001
0.058037356 0.017940048 0.4609203
0.062156174 0.016768172 0.46307015
0.065372333 0.015093315 0.46400002
0.049657345 0.024429234 0.45999998
0.052993584 0.023085495 0.46104285
0.056966711 0.022060134 0.46276411
0.060462713 0.020719312 0.46400011
0.04803022 0.02806478 0.46063182
0.052091483 0.027193315 0.46287936
0.055676267 0.025715789 0.46400002
0.044011097 0.03318017 0.46038261
0.047368355 0.032213755 0.46238804
0.050712805 0.030587636 0.46387497
0.03869487 0.039001934 0.4604353
0.042465061 0.037405539 0.46180692
0.045875072 0.036396161 0.46359092
0.034110896 0.043789428 0.46025398
0.037654944 0.042464346 0.46182153
0.04095234 0.041338552 0.46358711
0.029257081 0.048677098 0.46020827
0.032588061 0.047706328 0.46178508
0.036292486 0.046180528 0.46326828
0.024535809 0.054292399 0.45999998
0.027907761 0.052680016 0.46133637
0.031197019 0.051881704 0.46340889
0.019315241 0.059740271 0.46000001
0.022833684 0.057804048 0.46109572
0.026397292 0.056879729 0.46320733
0.014840466 0.064964257 0.46000001
0.018135009 0.063326679 0.46093106
0.021767437 0.061879832 0.46295232
0.013427741 0.068194792 0.46075234
0.017164201 0.066973358 0.46262476
0.020235479 0.06552916 0.46400002
0.0080059487 0.073382951 0.46069831
0.012264776 0.072121918 0.46250573
0.015854551 0.070710018 0.46400011
0.0034692143 0.078370586 0.46043643
0.0071583539 0.077379368 0.46249327
0.010802685 0.07570111 0.46389285
-0.00067877339 0.083486117 0.46022034
0.0025214024 0.082493119 0.46203345
0.0056533022 0.081277072 0.46374017
-0.0057758638 0.089143232 0.46015379
-0.0021323506 0.087580785 0.46150294
0.0014081094 0.086568713 0.46353269
-0.01087457 0.094099186 0.46000001
-0.0073034279 0.092734605 0.46172154
-0.0035327037 0.091443859 0.46354476
-0.015737159 0.099293344 0.46000001
-0.012200743 0.097939707 0.46130192
-0.0086145503 0.096924126 0.4632076
-0.016765935 0.10295327 0.46101809
-0.013041584 0.10179614 0.46310332
-0.0098557556 0.10015676 0.46400002
-0.021558667 0.10824616 0.46059161
-0.017711926 0.10725945 0.46276885
-0.026060684 0.11353745 0.46021712
-0.022628313 0.11252574 0.46207693
-0.019324828 0.11126474 0.46377143
-0.030653074 0.11944302 0.46000001
-0.027307678 0.1178631 0.46143886
-0.023868348 0.11686548 0.46351829
-0.031802833 0.12315403 0.46067509
-0.028355435 0.12196871 0.46282136
-0.040348414 0.12989102 0.46000001
-0.036848173 0.12807018 0.46057883
-0.032755829 0.1274119 0.46267503
-0.029415062 0.12575108 0.46400005
-0.04136939 0.13298556 0.46057814
-0.037667427 0.13239308 0.46240699
-0.034017131 0.13116369 0.46386963
-0.046080366 0.13898155 0.46024472
-0.042720128 0.13751692 0.4619098
-0.03914554 0.13639434 0.46366233
-0.051098879 0.14412414 0.46027073
-0.04714619 0.14248899 0.46171176
-0.043506663 0.14127661 0.46370536
-0.055717193 0.14879957 0.46019998
-0.052403986 0.14766718 0.46178716
-0.048493765 0.146309 0.46352068
-0.06062049 0.15438269 0.46000001
-0.057258219 0.15271381 0.46121806
-0.053766724 0.15205918 0.46338978
-0.062048562 0.15786372 0.46063152
-0.058088172 0.15717147 0.46304402
-0.054917384 0.15525982 0.46400005
-0.070180245 0.16496637 0.46000001
-0.06681294 0.16355805 0.46066177
-0.062637992 0.16201214 0.46224815
-0.059122603 0.1608897 0.4639411
-0.071539417 0.1682483 0.46042374
-0.067610972 0.16749725 0.46228954
-0.064209476 0.16624776 0.46374017
0.21711197 -0.16322044 0.4683772
0.20884961 -0.15696228 0.46577179
0.21239789 -0.15800722 0.46796107
0.21511269 -0.15965262 0.46900004
0.20412682 -0.15133329 0.46541816
0.20719467 -0.15288883 0.46656701
0.21062139 -0.15454957 0.46807143
0.19896533 -0.1462955 0.46554172
0.20219722 -0.14725387 0.46682981
0.20568459 -0.14879125 0.46824002
0.19390772 -0.14079878 0.46512008
0.19745076 -0.14243594 0.46646336
0.2013801 -0.14382528 0.46852946
0.1897911 -0.13598551 0.46500012
0.19284695 -0.13732485 0.4661074
0.19653374 -0.1374359 0.46832344
0.18831269 -0.13229771 0.46589941
0.19208604 -0.13280295 0.46812084
0.1954377 -0.13444832 0.46900004
0.18365125 -0.12666453 0.46515524
0.18720131 -0.12765823 0.46743441
0.19027795 -0.12891926 0.46895447
0.17913821 -0.12079726 0.46533337
0.1825244 -0.12240434 0.46630102
0.18618645 -0.12346932 0.46846268
0.17411353 -0.11633865 0.46510267
0.17760083 -0.11746375 0.46645054
0.18154681 -0.11830681 0.46822798
0.16944404 -0.11053503 0.46500009
0.17282985 -0.11209957 0.46639326
0.17660646 -0.11317707 0.46821624
0.16836055 -0.10684883 0.46583432
0.17201975 -0.10805938 0.4678717
0.16332132 -0.10176099 0.46569216
0.16714212 -0.10281523 0.46759522
0.17052639 -0.10447978 0.46899995
0.15861808 -0.096336931 0.46544048
0.16242337 -0.097617209 0.46727028
0.16600886 -0.099031717 0.4688333
0.15398064 -0.091296561 0.46511772
0.15736091 -0.092358865 0.46655938
0.1610032 -0.093477719 0.46859315
0.14882143 -0.086323321 0.46520737
0.15262453 -0.087537602 0.46642208
0.15633044 -0.088199876 0.46824363
0.14448726 -0.081041269 0.46518925
0.14765212 -0.082490042 0.46637672
0.15166438 -0.083294876 0.46827006
0.13939564 -0.075401708 0.46500003
0.14290662 -0.077313378 0.46574754
0.14697479 -0.078003205 0.46828794
0.13467382 -0.070478275 0.46500009
0.13800298 -0.072062947 0.4658621
0.1420082 -0.073192097 0.46768856
0.13337098 -0.066980764 0.46585613
0.13721631 -0.067954049 0.46770307
0.14082286 -0.069506712 0.46900001
0.1285405 -0.061746478 0.46551234
0.13220416 -0.062809609 0.4674173
0.13570181 -0.064140812 0.46899995
0.11979418 -0.055033009 0.46500003
0.12302102 -0.056557219 0.46592358
0.12724586 -0.057907496 0.46759662
0.13055964 -0.059651576 0.46846151
0.1188851 -0.052186713 0.46556619
0.12221818 -0.052467443 0.46756509
0.12576188 -0.054174513 0.4688648
0.11428803 -0.045812923 0.46521881
0.11760936 -0.047561631 0.4668006
0.12093444 -0.048324011 0.46885478
0.10974216 -0.041022796 0.46500009
0.1128054 -0.042046156 0.46642828
0.11634075 -0.043082356 0.46831092
0.10471614 -0.035418708 0.46500006
0.10808629 -0.037153717 0.46588016
0.11207158 -0.03796526 0.46812838
0.10340889 -0.031939764 0.46581268
0.10724461 -0.032833703 0.46781856
0.11059111 -0.034360133 0.46899995
0.098691128 -0.026510173 0.46562642
0.1021919 -0.027718477 0.467334
0.10587038 -0.029382672 0.46899995
0.094124064 -0.021339435 0.46517313
0.097473189 -0.022602495 0.4668262
0.10071903 -0.023533136 0.46868628
0.089693174 -0.015167027 0.46528578
0.092822097 -0.017100772 0.46644616
0.096439518 -0.018512601 0.4683108
0.08823698 -0.011969973 0.46591711
0.091731019 -0.01298466 0.46800709
0.083504148 -0.0065345014 0.46557012
0.086929798 -0.0079494053 0.46731204
0.090409175 -0.0098532699 0.46900001
0.07890594 -0.0016563537 0.46512288
0.08238557 -0.0026397987 0.46692726
0.085768901 -0.0035979843 0.46887803
0.074318737 0.0042375773 0.46513057
0.077675864 0.0024715366 0.46665812
0.081278771 0.0011441793 0.46834353
0.069194034 0.0094013065 0.46500012
0.072424427 0.0077803098 0.46640769
0.076132491 0.0063865585 0.46863863
0.068293296 0.012866372 0.46582237
0.071533628 0.012303366 0.46798024
0.063777342 0.018484367 0.46538231
0.067434706 0.017258691 0.46730435
0.070849195 0.015580502 0.46895233
0.058796454 0.024010077 0.46538153
0.062416434 0.022406984 0.46712077
0.0659279 0.021071965 0.46848983
0.054154713 0.028621189 0.4650785
0.057680007 0.027726833 0.46667695
0.061363179 0.025947692 0.4686462
0.04922526 0.034085587 0.4651629
0.052610129 0.032742567 0.46628198
0.056540705 0.031938221 0.46814409
0.044328574 0.039115645 0.46500009
0.047882054 0.037676986 0.46632725
0.052106895 0.037145931 0.46832326
0.055515844 0.035208065 0.46900001
0.039880544 0.044452995 0.46500009
0.043022912 0.04283727 0.46613577
0.046870474 0.041870274 0.4683412
0.050108641 0.040365186 0.46900004
0.034603234 0.049828075 0.46500009
0.037963033 0.047983743 0.46563447
0.042113744 0.047356155 0.46778223
0.045546316 0.045691386 0.46900001
0.033361264 0.052933987 0.46580684
0.037443627 0.05249333 0.46759322
0.040874276 0.051081736 0.46876469
0.028287195 0.058390599 0.4656837
0.032248653 0.05711114 0.46761149
0.036114573 0.055797026 0.46866664
0.02371392 0.063340999 0.46547699
0.027405053 0.062415622 0.4671841
0.030854298 0.060792319 0.46881628
0.018828437 0.068711728 0.46530882
0.022567265 0.067450352 0.4667775
0.026221013 0.066862322 0.46876577
0.013789434 0.074229665 0.46517959
0.017643198 0.072573982 0.46665013
0.021978324 0.071557045 0.46835986
0.025015857 0.070039727 0.46900001
0.009376674 0.078863636 0.46510723
0.012586312 0.077734724 0.46610755
0.016385682 0.076866917 0.4683201
0.004447144 0.084530301 0.46500009
0.0078584068 0.082712948 0.46593252
0.011960779 0.082087867 0.46792534
0.015130823 0.080692127 0.46900001
0.0031882252 0.087811999 0.46587658
0.0071758968 0.087218545 0.46787059
0.010808622 0.085497707 0.46899995
-0.0016691039 0.093078144 0.46592629
0.0021959664 0.091925524 0.46790615
0.0056251814 0.090569846 0.46892855
-0.0064188787 0.098208494 0.46541345
-0.0027188151 0.097203359 0.46722633
0.00086237694 0.095507018 0.46899995
-0.011750498 0.10366043 0.46525002
-0.0076556881 0.10252547 0.46676907
-0.0038045715 0.10170548 0.46841827
-0.015793933 0.10895237 0.46556863
-0.012541378 0.1073996 0.4667339
-0.0084546683 0.10652523 0.46853396
-0.020500163 0.11450041 0.46500012
-0.017208753 0.1127907 0.46654889
-0.013493634 0.11140924 0.46861729
-0.021920908 0.11808018 0.46564713
-0.018387642 0.11713072 0.46777475
-0.026220411 0.12337 0.46553144
-0.022598615 0.12236954 0.46731865
-0.019325487 0.12094518 0.46876919
-0.030645881 0.12850815 0.46528575
-0.027446017 0.12740368 0.46703383
-0.023764068 0.12602827 0.46872342
-0.035646748 0.1341833 0.46500012
-0.032177929 0.1327038 0.46628034
-0.028790208 0.13173425 0.4684101
-0.040158745 0.13941264 0.46500012
-0.037157971 0.13783276 0.46600524
-0.033449467 0.13683453 0.46791106
-0.045310404 0.14488201 0.46500009
-0.041787907 0.14283369 0.46587101
-0.037794955 0.14204584 0.46808296
-0.034294363 0.14004122 0.46900001
-0.050587717 0.14940839 0.46500003
-0.047058266 0.1481242 0.46591705
-0.043064766 0.14711891 0.46783245
-0.039300237 0.1453674 0.46899998
-0.051475611 0.15305059 0.46572825
-0.048015464 0.15197313 0.46772572
-0.044756934 0.15084448 0.46892306
-0.055881064 0.15851562 0.46521524
-0.05249016 0.15743044 0.4669784
-0.049284857 0.15576617 0.46899995
-0.060987171 0.16425128 0.4652122
-0.057299998 0.16264342 0.46617466
-0.053684533 0.16192234 0.46836853
-0.065802835 0.16957133 0.46500012
-0.062215839 0.16782501 0.46641365
-0.058260504 0.16643363 0.46817702
0.21891555 -0.16165726 0.47073084
0.22223683 -0.16261832 0.47225788
0.22548857 -0.16431724 0.47378257
0.21379334 -0.15614875 0.47000003
0.21714115 -0.15684485 0.47198462
0.22077981 -0.15919648 0.47341925
0.21275848 -0.15229981 0.47157952
0.21635608 -0.1541983 0.47307402
0.20490324 -0.14560071 0.47000003
0.2078049 -0.14720157 0.47103265
0.21104068 -0.14757071 0.47334015
0.20310219 -0.14229503 0.47064385
0.20672469 -0.14273393 0.47290891
0.19897364 -0.13701758 0.47057602
0.20216578 -0.13760468 0.47239876
0.2056592 -0.13911439 0.47396666
0.19399671 -0.13154255 0.47019392
0.19740267 -0.1324809 0.47184017
0.20079015 -0.13381912 0.47368422
0.18955424 -0.12595706 0.47000018
0.1928037 -0.12734807 0.47148934
0.196357 -0.12820974 0.47341272
0.18821457 -0.12166937 0.47101006
0.19142254 -0.12299101 0.47249171
0.19511969 -0.12453894 0.47400007
0.18330254 -0.11649388 0.47043842
0.18711595 -0.11815012 0.47241819
0.19060478 -0.11963658 0.47400001
0.17847195 -0.11152615 0.47037226
0.18235549 -0.11257955 0.47185382
0.18571082 -0.11360299 0.47368005
0.1736317 -0.10639735 0.47046262
0.17741898 -0.10757215 0.47187972
0.18155143 -0.1087506 0.47343016
0.16929395 -0.10117463 0.47016665
0.17267738 -0.1025915 0.47201422
0.1760653 -0.10363828 0.47366688
0.1643535 -0.095493034 0.47000012
0.16780975 -0.097259402 0.47114319
0.17138776 -0.097975157 0.47342709
0.15994473 -0.090700127 0.47000003
0.16317005 -0.0921119 0.47088501
0.16711643 -0.092977062 0.47284633
0.17052789 -0.094548039 0.47400007
0.15842901 -0.087032557 0.47076133
0.1622017 -0.087620974 0.47273076
0.1656118 -0.089126788 0.47393334
0.15333056 -0.081682302 0.47054389
0.1573218 -0.082818463 0.47233483
0.16097902 -0.084117167 0.47386664
0.1487857 -0.076208182 0.47077557
0.15232831 -0.077580042 0.47215575
0.15611786 -0.078750484 0.47380331
0.14350057 -0.071155481 0.47038877
0.14725603 -0.072716579 0.47217578
0.15103903 -0.073948175 0.47376099
0.13895404 -0.066151775 0.4702093
0.14245121 -0.067331739 0.47176394
0.14607492 -0.068747826 0.4737781
0.1340453 -0.061009694 0.47009298
0.13770235 -0.062485468 0.47134313
0.14156896 -0.06296511 0.47345355
0.12902164 -0.056100607 0.47008345
0.13261409 -0.057278246 0.47148681
0.13673182 -0.058228049 0.47334614
0.12447189 -0.050944541 0.47000021
0.12774664 -0.05248018 0.47105753
0.13178094 -0.053136349 0.47334662
0.13517717 -0.05456017 0.47400004
0.12299332 -0.046926808 0.47092801
0.12703413 -0.047963701 0.47288156
0.13056621 -0.049946185 0.47400004
0.11848204 -0.042250209 0.47062716
0.12208272 -0.042827211 0.47255492
0.12546621 -0.044143751 0.47400001
0.11387515 -0.036389355 0.47023878
0.11740364 -0.037635941 0.47224465
0.12087626 -0.039361108 0.4738
0.10918303 -0.030981138 0.47016671
0.11268704 -0.032463215 0.47152495
0.11610643 -0.03338721 0.4736484
0.10389984 -0.0258255 0.47033334
0.10761935 -0.027325902 0.47161224
0.11175288 -0.028880501 0.47313505
0.099746048 -0.020549392 0.47000003
0.10300936 -0.02232115 0.47159699
0.10647008 -0.023294417 0.4734838
0.098329931 -0.017011162 0.47094452
0.10171639 -0.018285435 0.4730801
0.093547717 -0.011554668 0.47067761
0.09719152 -0.012959834 0.47250512
0.10059495 -0.014572301 0.47400001
0.089096241 -0.0066902316 0.47029501
0.092318177 -0.007518338 0.47202757
0.095625751 -0.0090126498 0.4736442
0.084505871 -0.00072418252 0.47000003
0.087834224 -0.0023250566 0.47147235
0.091346972 -0.0033464637 0.47347561
0.079933822 0.0046133739 0.47000003
0.083204262 0.002846261 0.47090262
0.086913012 0.0018043668 0.47295541
0.074599765 0.0099509293 0.47000003
0.077790491 0.0082005654 0.47085765
0.082024679 0.0070537557 0.4727931
0.085389741 0.0056413482 0.47400001
0.074050598 0.013026783 0.47063765
0.077599689 0.012451926 0.4726651
0.081006512 0.01061466 0.47386494
0.069018729 0.019611379 0.47004777
0.072461918 0.017732373 0.47157589
0.07607238 0.016611384 0.47361362
0.064439647 0.024184415 0.47000018
0.06785059 0.022935204 0.47134513
0.07151109 0.021913012 0.47321913
0.059359588 0.029776139 0.47000003
