# .PCD v0.7 - Point Cloud Data file format
VERSION 0.7
FIELDS x y z
SIZE 4 4 4
TYPE F F F
COUNT 1 1 1
WIDTH 1560
HEIGHT 1
VIEWPOINT 0 0 0 1 0 0 0
POINTS 1560
DATA ascii
-0.0024620579 0.0053658043 0.80200005
-0.00067762373 0.0053724949 0.80300003
0.0011112625 0.0053791855 0.80400002
0.0029046005 0.0053858757 0.80500007
0.0047140596 0.0054059476 0.80800003
0.0065368745 0.005426019 0.81100005
0.0083936183 0.0054594716 0.81600004
nan nan nan
nan nan nan
nan nan nan
nan nan nan
nan nan nan
nan nan nan
0.022246931 0.0057538548 0.86000001
nan nan nan
nan nan nan
nan nan nan
nan nan nan
nan nan nan
nan nan nan
nan nan nan
nan nan nan
nan nan nan
nan nan nan
nan nan nan
nan nan nan
nan nan nan
nan nan nan
0.05439977 0.0061419052 0.91800004
0.056504752 0.0061485958 0.91900003
0.058677901 0.0061619771 0.92100006
0.060728077 0.0061619771 0.92100006
0.062778249 0.0061619771 0.92100006
0.064898819 0.0061686677 0.92200005
0.067096449 0.0061820485 0.92400002
0.06907846 0.0061753583 0.92300004
0.071133085 0.0061753583 0.92300004
0.073187716 0.0061753583 0.92300004
0.075242348 0.0061753583 0.92300004
0.077548213 0.0061954297 0.92600006
0.079867423 0.0062155016 0.92900002
0.082111806 0.0062288828 0.93100005
0.084184244 0.0062288828 0.93100005
0.086349323 0.0062355734 0.93200004
0.08842399 0.0062355734 0.93200004
0.090401553 0.0062288828 0.93100005
0.092275329 0.0062155016 0.92900002
0.094241761 0.006208811 0.92800003
0.096099965 0.0061954297 0.92600006
0.097949259 0.0061820485 0.92400002
0.099897884 0.0061753583 0.92300004
0.10217343 0.0061887391 0.92500007
0.10457055 0.006208811 0.92800003
0.10686613 0.0062221922 0.93000007
0.10905348 0.0062288828 0.93100005
0.11112591 0.0062288828 0.93100005
0.11319835 0.0062288828 0.93100005
0.11514697 0.0062221922 0.93000007
0.1169651 0.006208811 0.92800003
0.11903086 0.006208811 0.92800003
0.12070514 0.0061887391 0.92500007
0.12263151 0.0061820485 0.92400002
0.12468836 0.0061820485 0.92400002
0.12674521 0.0061820485 0.92400002
0.12880208 0.0061820485 0.92400002
0.13114217 0.0061954297 0.92600006
0.13320348 0.0061954297 0.92600006
0.13541086 0.0062021203 0.92700005
0.13762268 0.006208811 0.92800003
0.13953792 0.0062021203 0.92700005
0.1417542 0.006208811 0.92800003
0.14366499 0.0062021203 0.92700005
0.14572851 0.0062021203 0.92700005
0.14763261 0.0061954297 0.92600006
0.14953226 0.0061887391 0.92500007
0.15175521 0.0061954297 0.92600006
0.15398264 0.0062021203 0.92700005
0.15604618 0.0062021203 0.92700005
0.15793914 0.0061954297 0.92600006
0.16000044 0.0061954297 0.92600006
0.16171172 0.0061820485 0.92400002
0.16359134 0.0061753583 0.92300004
0.16564597 0.0061753583 0.92300004
0.1677006 0.0061753583 0.92300004
0.16975524 0.0061753583 0.92300004
0.17180985 0.0061753583 0.92300004
0.17424123 0.0061887391 0.92500007
0.17687207 0.006208811 0.92800003
0.17970912 0.0062355734 0.93200004
0.18217388 0.0062489538 0.93400002
0.18445028 0.0062556444 0.93500006
0.18673111 0.006262335 0.93600005
0.18901642 0.0062690256 0.93700004
0.19110221 0.0062690256 0.93700004
0.19277564 0.0062556444 0.93500006
0.19485699 0.0062556444 0.93500006
0.19693832 0.0062556444 0.93500006
0.19880679 0.0062489538 0.93400002
0.20067084 0.0062422631 0.93300003
0.20274773 0.0062422631 0.93300003
0.20504414 0.0062489538 0.93400002
0.20712325 0.0062489538 0.93400002
0.20920236 0.0062489538 0.93400002
0.21128148 0.0062489538 0.93400002
0.21313217 0.0062422631 0.93300003
0.21543971 0.0062489538 0.93400002
0.21705304 0.0062355734 0.93200004
0.2191277 0.0062355734 0.93200004
0.22096504 0.0062288828 0.93100005
0.22303747 0.0062288828 0.93100005
0.22510991 0.0062288828 0.93100005
0.22718234 0.0062288828 0.93100005
0.22925478 0.0062288828 0.93100005
0.23182416 0.0062422631 0.93300003
0.23390105 0.0062422631 0.93300003
0.23597793 0.0062422631 0.93300003
0.23856513 0.0062556444 0.93500006
0.24064647 0.0062556444 0.93500006
0.24324702 0.0062690256 0.93700004
0.24533281 0.0062690256 0.93700004
0.2474186 0.0062690256 0.93700004
0.24950439 0.0062690256 0.93700004
0.25159019 0.0062690256 0.93700004
0.25367597 0.0062690256 0.93700004
0.25548881 0.006262335 0.93600005
0.25729719 0.0062556444 0.93500006
0.25965592 0.006262335 0.93600005
0.26201916 0.0062690256 0.93700004
0.26410493 0.0062690256 0.93700004
0.26619074 0.0062690256 0.93700004
0.26856282 0.0062757162 0.93800002
0.27007377 0.006262335 0.93600005
0.27244809 0.0062690256 0.93700004
0.27424088 0.006262335 0.93600005
0.27632445 0.006262335 0.93600005
0.27811059 0.0062556444 0.93500006
0.28019193 0.0062556444 0.93500006
0.28197137 0.0062489538 0.93400002
0.28405049 0.0062489538 0.93400002
0.28612959 0.0062489538 0.93400002
0.28790015 0.0062422631 0.93300003
0.29028782 0.0062489538 0.93400002
0.29267997 0.0062556444 0.93500006
0.2947613 0.0062556444 0.93500006
0.29716012 0.006262335 0.93600005
0.29956341 0.0062690256 0.93700004
0.30197114 0.0062757162 0.93800002
0.30405915 0.0062757162 0.93800002
0.30679992 0.006289097 0.94000006
0.30856377 0.0062824069 0.93900007
0.31065401 0.0062824069 0.93900007
0.31307733 0.006289097 0.94000006
0.31550509 0.0062957876 0.94100004
0.31793728 0.0063024783 0.94200003
0.32037395 0.0063091689 0.94300002
0.32247311 0.0063091689 0.94300002
0.32491645 0.0063158595 0.94400007
0.32701781 0.0063158595 0.94400007
0.32842189 0.0063024783 0.94200003
0.33016798 0.0062957876 0.94100004
nan nan nan
0.33364671 0.0062824069 0.93900007
0.33537942 0.0062757162 0.93800002
0.33710766 0.0062690256 0.93700004
0.33883145 0.006262335 0.93600005
0.34164348 0.0062757162 0.93800002
0.34483084 0.0062957876 0.94100004
0.34729421 0.0063024783 0.94200003
0.34939113 0.0063024783 0.94200003
0.35111493 0.0062957876 0.94100004
0.35245889 0.0062824069 0.93900007
nan nan nan
0.35663939 0.0062824069 0.93900007
0.3591117 0.006289097 0.94000006
nan nan nan
nan nan nan
nan nan nan
nan nan nan
0.36878774 0.0062757162 0.93800002
0.37048036 0.0062690256 0.93700004
nan nan nan
0.37385222 0.0062556444 0.93500006
0.37593356 0.0062556444 0.93500006
0.37882352 0.0062690256 0.93700004
nan nan nan
0.38381258 0.0062824069 0.93900007
0.3863138 0.006289097 0.94000006
0.38840628 0.006289097 0.94000006
nan nan nan
0.39259121 0.006289097 0.94000006
0.3942638 0.0062824069 0.93900007
0.39635405 0.0062824069 0.93900007
0.39844429 0.0062824069 0.93900007
0.40138766 0.0062957876 0.94100004
0.40433991 0.0063091689 0.94300002
0.40730107 0.0063225501 0.94500005
0.41027114 0.0063359309 0.94700003
0.41237918 0.0063359309 0.94700003
nan nan nan
nan nan nan
0.41693479 0.0063091689 0.94300002
0.41903394 0.0063091689 0.94300002
0.42068648 0.0063024783 0.94200003
0.42323223 0.0063091689 0.94300002
0.42533138 0.0063091689 0.94300002
0.4278838 0.0063158595 0.94400007
0.4299852 0.0063158595 0.94400007
0.43254429 0.0063225501 0.94500005
0.43464789 0.0063225501 0.94500005
0.43721363 0.0063292407 0.94600004
0.43931946 0.0063292407 0.94600004
0.44095868 0.0063225501 0.94500005
0.44306228 0.0063225501 0.94500005
0.44422373 0.0063091689 0.94300002
0.44584957 0.0063024783 0.94200003
nan nan nan
0.45004341 0.0063024783 0.94200003
0.45262033 0.0063091689 0.94300002
0.45471945 0.0063091689 0.94300002
0.45681861 0.0063091689 0.94300002
0.45989108 0.0063225501 0.94500005
0.46248356 0.0063292407 0.94600004
0.46458939 0.0063292407 0.94600004
0.46669519 0.0063292407 0.94600004
0.4683055 0.0063225501 0.94500005
0.4704091 0.0063225501 0.94500005
0.47351271 0.0063359309 0.94700003
0.47461629 0.0063225501 0.94500005
0.47571096 0.0063091689 0.94300002
0.47781008 0.0063091689 0.94300002
0.47990924 0.0063091689 0.94300002
0.4820084 0.0063091689 0.94300002
nan nan nan
nan nan nan
0.48882368 0.0063158595 0.94400007
0.49092504 0.0063158595 0.94400007
0.49302641 0.0063158595 0.94400007
0.49460328 0.0063091689 0.94300002
0.49617571 0.0063024783 0.94200003
0.4977437 0.0062957876 0.94100004
0.49983838 0.0062957876 0.94100004
nan nan nan
nan nan nan
nan nan nan
nan nan nan
nan nan nan
nan nan nan
nan nan nan
nan nan nan
nan nan nan
nan nan nan
nan nan nan
nan nan nan
nan nan nan
nan nan nan
nan nan nan
nan nan nan
nan nan nan
nan nan nan
nan nan nan
nan nan nan
nan nan nan
nan nan nan
nan nan nan
nan nan nan
nan nan nan
nan nan nan
nan nan nan
nan nan nan
nan nan nan
nan nan nan
nan nan nan
nan nan nan
nan nan nan
nan nan nan
nan nan nan
nan nan nan
nan nan nan
nan nan nan
-0.39914513 0.0079000732 0.88600004
-0.39717287 0.0079000732 0.88600004
-0.39475456 0.0078911567 0.88500005
-0.39234069 0.0078822402 0.88400006
-0.39081448 0.0078911567 0.88500005
-0.38928381 0.0079000732 0.88600004
-0.38731155 0.0079000732 0.88600004
-0.38533929 0.0079000732 0.88600004
-0.3837997 0.0079089897 0.88700002
-0.38182521 0.0079089897 0.88700002
-0.38027894 0.0079179062 0.88800007
-0.37830225 0.0079179062 0.88800007
-0.37590173 0.0079089897 0.88700002
-0.37392727 0.0079089897 0.88700002
-0.37237209 0.0079179062 0.88800007
-0.37039536 0.0079179062 0.88800007
-0.36924845 0.0079357401 0.89000005
-0.36767992 0.0079446565 0.89100003
-0.36569652 0.0079446565 0.89100003
-0.36330494 0.0079357401 0.89000005
nan nan nan
nan nan nan
-0.35575533 0.0079000732 0.88600004
-0.35298443 0.0078822402 0.88400006
nan nan nan
-0.34865397 0.0078733237 0.88300002
-0.34747365 0.0078911567 0.88500005
-0.34667477 0.0079179062 0.88800007
-0.34547442 0.0079357401 0.89000005
-0.34387919 0.0079446565 0.89100003
-0.34227949 0.0079535721 0.89200002
-0.34067541 0.0079624895 0.89300007
-0.33868757 0.0079624895 0.89300007
-0.33632264 0.0079535721 0.89200002
-0.33433703 0.0079535721 0.89200002
nan nan nan
nan nan nan
nan nan nan
nan nan nan
-0.32586366 0.0079892389 0.89600003
-0.32423064 0.0079981554 0.89700001
-0.32187462 0.0079892389 0.89600003
-0.3195231 0.0079803225 0.89500004
-0.31753078 0.0079803225 0.89500004
-0.3155385 0.0079803225 0.89500004
-0.31284556 0.0079624895 0.89300007
-0.31050956 0.0079535721 0.89200002
-0.30886987 0.0079624895 0.89300007
-0.30688199 0.0079624895 0.89300007
-0.30591843 0.0079892389 0.89600003
-0.30426311 0.0079981554 0.89700001
nan nan nan
-0.30227807 0.0080516553 0.90300006
-0.30060053 0.0080605717 0.90400004
-0.29858819 0.0080605717 0.90400004
-0.29657587 0.0080605717 0.90400004
-0.29488936 0.0080694882 0.90500003
-0.29287481 0.0080694882 0.90500003
-0.29118162 0.0080784047 0.90600002
-0.28916484 0.0080784047 0.90600002
-0.28746501 0.0080873212 0.90700006
-0.28544599 0.0080873212 0.90700006
-0.28342697 0.0080873212 0.90700006
-0.28140798 0.0080873212 0.90700006
-0.27908093 0.0080784047 0.90600002
-0.27645251 0.0080605717 0.90400004
-0.2741366 0.0080516553 0.90300006
-0.27122241 0.0080249058 0.90000004
-0.26862073 0.0080070719 0.89800006
-0.26602793 0.0079892389 0.89600003
-0.26373872 0.0079803225 0.89500004
-0.26174641 0.0079803225 0.89500004
-0.25975412 0.0079803225 0.89500004
-0.25804985 0.0079892389 0.89600003
-0.2563411 0.0079981554 0.89700001
-0.25434434 0.0079981554 0.89700001
-0.25262889 0.0080070719 0.89800006
-0.25090903 0.0080159884 0.89900005
-0.25001532 0.0080516553 0.90300006
-0.24882914 0.0080784047 0.90600002
-0.24708478 0.0080873212 0.90700006
-0.24533595 0.0080962377 0.90800005
-0.24385065 0.0081140706 0.91000003
-0.24155922 0.0081051541 0.90900004
-0.23927224 0.0080962377 0.90800005
-0.23698972 0.0080873212 0.90700006
-0.23445259 0.0080694882 0.90500003
-0.23218118 0.0080605717 0.90400004
-0.23016885 0.0080605717 0.90400004
-0.22765175 0.0080427378 0.90200007
-0.22564386 0.0080427378 0.90200007
-0.22363599 0.0080427378 0.90200007
-0.2216281 0.0080427378 0.90200007
-0.21937674 0.0080338214 0.90100002
-0.21712983 0.0080249058 0.90000004
-0.21488738 0.0080159884 0.89900005
-0.21288617 0.0080159884 0.89900005
-0.21088497 0.0080159884 0.89900005
-0.20865141 0.0080070719 0.89800006
-0.20665243 0.0080070719 0.89800006
-0.20488136 0.0080159884 0.89900005
-0.20310582 0.0080249058 0.90000004
-0.20154929 0.0080427378 0.90200007
-0.19976263 0.0080516553 0.90300006
-0.19797151 0.0080605717 0.90400004
-0.19595918 0.0080605717 0.90400004
-0.19394685 0.0080605717 0.90400004
-0.19193451 0.0080605717 0.90400004
-0.189502 0.0080427378 0.90200007
-0.18728626 0.0080338214 0.90100002
-0.18548624 0.0080427378 0.90200007
-0.18368177 0.0080516553 0.90300006
-0.18187284 0.0080605717 0.90400004
-0.17986052 0.0080605717 0.90400004
-0.17784818 0.0080605717 0.90400004
-0.17603037 0.0080694882 0.90500003
-0.17401581 0.0080694882 0.90500003
-0.17181118 0.0080605717 0.90400004
-0.16961102 0.0080516553 0.90300006
-0.16741531 0.0080427378 0.90200007
-0.16540742 0.0080427378 0.90200007
-0.16339955 0.0080427378 0.90200007
-0.16121274 0.0080338214 0.90100002
-0.15938377 0.0080427378 0.90200007
-0.1573759 0.0080427378 0.90200007
-0.15554027 0.0080516553 0.90300006
-0.15353017 0.0080516553 0.90300006
-0.15168785 0.0080605717 0.90400004
-0.14967552 0.0080605717 0.90400004
nan nan nan
-0.14597309 0.0080784047 0.90600002
nan nan nan
-0.14225285 0.0080962377 0.90800005
-0.14023161 0.0080962377 0.90800005
-0.13821037 0.0080962377 0.90800005
-0.13603915 0.0080873212 0.90700006
-0.13387237 0.0080784047 0.90600002
-0.13156451 0.0080605717 0.90400004
-0.12940887 0.0080516553 0.90300006
-0.12711659 0.0080338214 0.90100002
-0.12497208 0.0080249058 0.90000004
-0.12310529 0.0080338214 0.90100002
-0.12136845 0.0080516553 0.90300006
-0.11949051 0.0080605717 0.90400004
-0.11773809 0.0080784047 0.90600002
-0.11597677 0.0080962377 0.90800005
-0.11395553 0.0080962377 0.90800005
-0.11193429 0.0080962377 0.90800005
-0.109792 0.0080873212 0.90700006
-0.10765416 0.0080784047 0.90600002
-0.10552078 0.0080694882 0.90500003
-0.10339185 0.0080605717 0.90400004
-0.10137951 0.0080605717 0.90400004
-0.099477097 0.0080694882 0.90500003
-0.097570233 0.0080784047 0.90600002
-0.09555345 0.0080784047 0.90600002
-0.09353666 0.0080784047 0.90600002
-0.0916209 0.0080873212 0.90700006
-0.089601889 0.0080873212 0.90700006
-0.087582879 0.0080873212 0.90700006
-0.085658208 0.0080962377 0.90800005
-0.083636969 0.0080962377 0.90800005
-0.081795499 0.0081140706 0.91000003
-0.079857469 0.0081229871 0.91100007
-0.077829555 0.0081229871 0.91100007
-0.075718433 0.0081140706 0.91000003
-0.073611759 0.0081051541 0.90900004
-0.07150954 0.0080962377 0.90800005
-0.069105655 0.0080516553 0.90300006
nan nan nan
nan nan nan
nan nan nan
nan nan nan
nan nan nan
nan nan nan
nan nan nan
nan nan nan
-0.046156153 0.0072848308 0.81700003
-0.044283211 0.0072759138 0.81600004
-0.042362683 0.0072580809 0.81400001
-0.040500876 0.0072491639 0.81300002
-0.038643524 0.0072402474 0.81200004
-0.036790621 0.0072313314 0.81100005
-0.034942169 0.0072224149 0.81000006
-0.033098172 0.007213498 0.80900002
-0.031219937 0.007195665 0.80700004
-0.029314149 0.0071689156 0.80400002
-0.027490186 0.0071599991 0.80300003
-0.02567067 0.0071510822 0.80200005
-0.023855612 0.0071421657 0.80100006
-0.022072559 0.0071421657 0.80100006
-0.020314837 0.0071510822 0.80200005
-0.018529559 0.0071510822 0.80200005
-0.01676516 0.0071599991 0.80300003
-0.014996309 0.0071689156 0.80400002
-0.013223005 0.0071778316 0.80500007
-0.011416849 0.0071689156 0.80400002
-0.0096151438 0.0071599991 0.80300003
-0.0078276396 0.0071599991 0.80300003
-0.006032614 0.0071510822 0.80200005
-0.0042526317 0.0071599991 0.80300003
-0.0024651277 0.0071599991 0.80300003
-0.00067762373 0.0071599991 0.80300003
0.0011126446 0.0071778316 0.80500007
0.0029118173 0.007195665 0.80700004
0.0047198934 0.007213498 0.80900002
0.0065529947 0.0072491639 0.81300002
0.0084347632 0.0073115807 0.82000005
nan nan nan
nan nan nan
nan nan nan
nan nan nan
nan nan nan
nan nan nan
0.022169324 0.0076414933 0.85700005
nan nan nan
nan nan nan
nan nan nan
nan nan nan
nan nan nan
nan nan nan
nan nan nan
nan nan nan
nan nan nan
nan nan nan
nan nan nan
nan nan nan
nan nan nan
nan nan nan
0.054221991 0.008158654 0.91500002
0.056320298 0.0081675705 0.91600007
0.058423053 0.0081764869 0.91700006
0.060530264 0.0081854034 0.91800004
0.062505595 0.0081764869 0.91700006
0.064617261 0.0081854034 0.91800004
0.066805989 0.0082032364 0.92000002
0.068779096 0.0081943199 0.91900003
0.070901886 0.0082032364 0.92000002
0.072949842 0.0082032364 0.92000002
0.075079307 0.0082121529 0.92100006
0.077296972 0.0082299868 0.92300004
0.079523548 0.0082478188 0.92500007
0.081759021 0.0082656527 0.92700005
0.083822556 0.0082656527 0.92700005
0.085886084 0.0082656527 0.92700005
0.087759867 0.0082478188 0.92500007
0.08962474 0.0082299868 0.92300004
0.091480717 0.0082121529 0.92100006
0.093327783 0.0081943199 0.91900003
0.095269725 0.0081854034 0.91800004
0.097207218 0.0081764869 0.91700006
0.099140257 0.0081675705 0.91600007
0.10128976 0.0081764869 0.91700006
0.10344372 0.0081854034 0.91800004
0.10583194 0.0082121529 0.92100006
0.10799926 0.0082210694 0.92200005
0.11029039 0.0082389023 0.92400002
0.11246882 0.0082478188 0.92500007
0.1145279 0.0082478188 0.92500007
0.11646094 0.0082389023 0.92400002
0.1185178 0.0082389023 0.92400002
0.12044416 0.0082299868 0.92300004
0.12236607 0.0082210694 0.92200005
0.12441847 0.0082210694 0.92200005
0.1263337 0.0082121529 0.92100006
0.12852328 0.0082210694 0.92200005
0.13071731 0.0082299868 0.92300004
0.13262808 0.0082210694 0.92200005
0.13482656 0.0082299868 0.92300004
0.13688119 0.0082299868 0.92300004
0.13893582 0.0082299868 0.92300004
0.14114319 0.0082389023 0.92400002
0.14304507 0.0082299868 0.92300004
0.1450997 0.0082299868 0.92300004
0.14715432 0.0082299868 0.92300004
0.1493706 0.0082389023 0.92400002
0.15142745 0.0082389023 0.92400002
0.15348431 0.0082389023 0.92400002
0.15554117 0.0082389023 0.92400002
0.15742746 0.0082299868 0.92300004
0.15948209 0.0082299868 0.92300004
0.1611867 0.0082121529 0.92100006
0.16305962 0.0082032364 0.92000002
0.16510756 0.0082032364 0.92000002
0.16715552 0.0082032364 0.92000002
0.16901956 0.0081943199 0.91900003
0.17125142 0.0082032364 0.92000002
0.17329937 0.0082032364 0.92000002
0.17572851 0.0082210694 0.92200005
0.17816655 0.0082389023 0.92400002
0.18080856 0.0082656527 0.92700005
0.18326664 0.0082834857 0.92900002
0.18613262 0.0083191516 0.93300003
0.18861295 0.0083369846 0.93500006
0.1906943 0.0083369846 0.93500006
0.19256945 0.0083280681 0.93400002
0.19464856 0.0083280681 0.93400002
0.19651707 0.0083191516 0.93300003
0.19838108 0.0083102351 0.93200004
0.20002559 0.0082924021 0.93000007
0.20187849 0.0082834857 0.92900002
0.20394649 0.0082834857 0.92900002
0.20623621 0.0082924021 0.93000007
0.20808245 0.0082834857 0.92900002
0.20992421 0.0082745692 0.92800003
0.21198997 0.0082745692 0.92800003
0.21405573 0.0082745692 0.92800003
0.21612148 0.0082745692 0.92800003
0.21818724 0.0082745692 0.92800003
0.22025301 0.0082745692 0.92800003
0.22255833 0.0082834857 0.92900002
0.2248681 0.0082924021 0.93000007
0.22693832 0.0082924021 0.93000007
0.22900853 0.0082924021 0.93000007
0.23132722 0.0083013186 0.93100005
0.23339966 0.0083013186 0.93100005
0.235725 0.0083102351 0.93200004
0.23779966 0.0083102351 0.93200004
0.23987433 0.0083102351 0.93200004
0.2427278 0.0083369846 0.93500006
0.24480915 0.0083369846 0.93500006
0.24689049 0.0083369846 0.93500006
0.24897183 0.0083369846 0.93500006
0.25105315 0.0083369846 0.93500006
0.25313452 0.0083369846 0.93500006
0.25521585 0.0083369846 0.93500006
0.25674683 0.0083191516 0.93300003
0.25882372 0.0083191516 0.93300003
0.26118022 0.0083280681 0.93400002
0.26325935 0.0083280681 0.93400002
0.26533845 0.0083280681 0.93400002
0.26770389 0.0083369846 0.93500006
0.26949668 0.0083280681 0.93400002
0.27157581 0.0083280681 0.93400002
0.27365491 0.0083280681 0.93400002
0.27573404 0.0083280681 0.93400002
0.27751571 0.0083191516 0.93300003
nan nan nan
0.28106567 0.0083013186 0.93100005
0.28313813 0.0083013186 0.93100005
0.28521055 0.0083013186 0.93100005
nan nan nan
0.28904462 0.0082924021 0.93000007
0.29205391 0.0083191516 0.93300003
0.29444608 0.0083280681 0.93400002
0.29684263 0.0083369846 0.93500006
0.29924369 0.008345901 0.93600005
0.30132726 0.008345901 0.93600005
0.30373499 0.0083548184 0.93700004
0.30582079 0.0083548184 0.93700004
0.30757797 0.008345901 0.93600005
0.30999237 0.0083548184 0.93700004
0.31207815 0.0083548184 0.93700004
0.31449926 0.0083637349 0.93800002
0.31692475 0.0083726514 0.93900007
0.31935474 0.008381567 0.94000006
0.32144722 0.008381567 0.94000006
0.32388389 0.0083904844 0.94100004
0.32597858 0.0083904844 0.94100004
0.32772464 0.008381567 0.94000006
0.32911539 0.0083637349 0.93800002
0.33049718 0.008345901 0.93600005
0.33222541 0.0083369846 0.93500006
0.33430678 0.0083369846 0.93500006
0.33602837 0.0083280681 0.93400002
0.33738345 0.0083102351 0.93200004
0.33982235 0.0083191516 0.93300003
nan nan nan
nan nan nan
nan nan nan
nan nan nan
0.35058215 0.0083280681 0.93400002
0.35303882 0.0083369846 0.93500006
0.35512015 0.0083369846 0.93500006
0.35720152 0.0083369846 0.93500006
0.35928285 0.0083369846 0.93500006
nan nan nan
0.36344552 0.0083369846 0.93500006
nan nan nan
nan nan nan
0.3692942 0.0083280681 0.93400002
0.37097567 0.0083191516 0.93300003
0.37305257 0.0083191516 0.93300003
0.37512946 0.0083191516 0.93300003
0.37801492 0.0083369846 0.93500006
0.38090929 0.0083548184 0.93700004
0.3829951 0.0083548184 0.93700004
0.38549188 0.0083637349 0.93800002
0.38757989 0.0083637349 0.93800002
0.3896679 0.0083637349 0.93800002
0.39133826 0.0083548184 0.93700004
0.39300418 0.008345901 0.93600005
0.39508775 0.008345901 0.93600005
0.39717132 0.008345901 0.93600005
0.40053454 0.0083726514 0.93900007
0.40305355 0.008381567 0.94000006
0.40557706 0.0083904844 0.94100004
0.40767175 0.0083904844 0.94100004
0.40976644 0.0083904844 0.94100004
0.41142344 0.008381567 0.94000006
0.4126361 0.0083637349 0.93800002
0.41472414 0.0083637349 0.93800002
0.41636777 0.0083548184 0.93700004
0.41845357 0.0083548184 0.93700004
0.42143697 0.0083726514 0.93900007
0.42442933 0.0083904844 0.94100004
0.42697725 0.0083994009 0.94200003
0.42952967 0.0084083173 0.94300002
0.43208656 0.0084172338 0.94400007
0.43418792 0.0084172338 0.94400007
0.43628931 0.0084172338 0.94400007
0.43839067 0.0084172338 0.94400007
0.44002542 0.0084083173 0.94300002
0.4411869 0.0083904844 0.94100004
0.44328159 0.0083904844 0.94100004
0.44442967 0.0083726514 0.93900007
0.44699544 0.008381567 0.94000006
0.44813243 0.0083637349 0.93800002
0.4511804 0.008381567 0.94000006
0.45327285 0.008381567 0.94000006
0.45536533 0.008381567 0.94000006
0.45794445 0.0083904844 0.94100004
0.46003917 0.0083904844 0.94100004
0.46213385 0.0083904844 0.94100004
0.46472186 0.0083994009 0.94200003
0.46632326 0.0083904844 0.94100004
0.46841794 0.0083904844 0.94100004
0.47051263 0.0083904844 0.94100004
0.47260734 0.0083904844 0.94100004
0.47419757 0.008381567 0.94000006
0.47578332 0.0083726514 0.93900007
0.47787356 0.0083726514 0.93900007
0.48047498 0.008381567 0.94000006
0.48256743 0.008381567 0.94000006
0.48517552 0.0083904844 0.94100004
0.48727021 0.0083904844 0.94100004
0.48936492 0.0083904844 0.94100004
0.49145961 0.0083904844 0.94100004
0.49355429 0.0083904844 0.94100004
0.49512225 0.008381567 0.94000006
0.49721473 0.008381567 0.94000006
0.49930722 0.008381567 0.94000006
nan nan nan
nan nan nan
nan nan nan
nan nan nan
nan nan nan
nan nan nan
nan nan nan
nan nan nan
nan nan nan
nan nan nan
nan nan nan
nan nan nan
nan nan nan
nan nan nan
nan nan nan
nan nan nan
nan nan nan
nan nan nan
nan nan nan
nan nan nan
nan nan nan
nan nan nan
nan nan nan
nan nan nan
nan nan nan
nan nan nan
nan nan nan
nan nan nan
nan nan nan
nan nan nan
nan nan nan
nan nan nan
nan nan nan
nan nan nan
nan nan nan
nan nan nan
nan nan nan
-0.40066469 0.0098611955 0.88500005
nan nan nan
-0.39582804 0.0098389098 0.88300002
nan nan nan
-0.39100924 0.0098166242 0.88100004
-0.38948968 0.0098277675 0.88200003
nan nan nan
-0.3860001 0.0098389098 0.88300002
-0.38403451 0.0098389098 0.88300002
-0.38293433 0.0098611955 0.88500005
-0.38096431 0.0098611955 0.88500005
-0.37899426 0.0098611955 0.88500005
-0.37702423 0.0098611955 0.88500005
-0.37463036 0.0098500531 0.88400006
-0.37266254 0.0098500531 0.88400006
-0.37069473 0.0098500531 0.88400006
-0.36872694 0.0098500531 0.88400006
-0.36800379 0.0098834801 0.88700002
-0.36644194 0.0098946225 0.88800007
nan nan nan
nan nan nan
nan nan nan
nan nan nan
nan nan nan
-0.35178655 0.0098166242 0.88100004
nan nan nan
-0.34786427 0.0098166242 0.88100004
-0.34629574 0.0098277675 0.88200003
-0.3455036 0.0098611955 0.88500005
-0.3443099 0.0098834801 0.88700002
-0.34272134 0.0098946225 0.88800007
-0.34112838 0.0099057658 0.88900006
-0.33991238 0.0099280514 0.89100003
-0.33754975 0.0099169081 0.89000005
-0.33519155 0.0099057658 0.88900006
-0.33321258 0.0099057658 0.88900006
nan nan nan
nan nan nan
nan nan nan
nan nan nan
nan nan nan
-0.32242331 0.0099391937 0.89200002
-0.32043767 0.0099391937 0.89200002
-0.31809506 0.0099280514 0.89100003
-0.31575689 0.0099169081 0.89000005
-0.31412828 0.0099280514 0.89100003
-0.31144422 0.0099057658 0.88900006
-0.30911717 0.0098946225 0.88800007
-0.30714044 0.0098946225 0.88800007
-0.30516371 0.0098946225 0.88800007
-0.30386987 0.0099169081 0.89000005
-0.30222788 0.0099280514 0.89100003
-0.30058146 0.0099391937 0.89200002
-0.29993483 0.009983764 0.89600003
-0.29827285 0.0099949064 0.89700001
-0.29660639 0.01000605 0.89800006
-0.29493549 0.010017191 0.89900005
-0.29293427 0.010017191 0.89900005
-0.29158032 0.010039477 0.90100002
-0.29021746 0.010061762 0.90300006
-0.28852651 0.010072906 0.90400004
-0.28651416 0.010072906 0.90400004
-0.28450185 0.010072906 0.90400004
-0.28248951 0.010072906 0.90400004
-0.28047717 0.010072906 0.90400004
-0.27815682 0.010061762 0.90300006
-0.27553508 0.010039477 0.90100002
-0.27292228 0.010017191 0.89900005
-0.27031836 0.0099949064 0.89700001
-0.26802245 0.009983764 0.89600003
-0.2651372 0.009950337 0.89300007
-0.2628547 0.0099391937 0.89200002
-0.26086906 0.0099391937 0.89200002
-0.25888345 0.0099391937 0.89200002
-0.25718582 0.009950337 0.89300007
-0.25519797 0.009950337 0.89300007
-0.2534937 0.0099614784 0.89400005
-0.25178492 0.0099726217 0.89500004
-0.25007173 0.009983764 0.89600003
-0.24890783 0.010017191 0.89900005
-0.24773055 0.01005062 0.90200007
-0.24626751 0.010072906 0.90400004
-0.24479556 0.010095189 0.90600002
-0.24331471 0.010117475 0.90800005
-0.24102774 0.010106333 0.90700006
-0.23874521 0.010095189 0.90600002
-0.23620585 0.010072906 0.90400004
-0.23315726 0.010028334 0.90000004
-0.23089699 0.010017191 0.89900005
-0.22838658 0.0099949064 0.89700001
-0.22638983 0.0099949064 0.89700001
-0.22414291 0.009983764 0.89600003
-0.22214837 0.009983764 0.89600003
-0.22015385 0.009983764 0.89600003
-0.21815933 0.009983764 0.89600003
-0.21592355 0.0099726217 0.89500004
-0.21393125 0.0099726217 0.89500004
-0.21193895 0.0099726217 0.89500004
-0.20971207 0.0099614784 0.89400005
-0.20748964 0.009950337 0.89300007
-0.20550179 0.009950337 0.89300007
-0.20396975 0.0099726217 0.89500004
-0.20220312 0.009983764 0.89600003
-0.2002086 0.009983764 0.89600003
-0.19821408 0.009983764 0.89600003
-0.19621955 0.009983764 0.89600003
-0.19444181 0.0099949064 0.89700001
-0.19244505 0.0099949064 0.89700001
-0.19023599 0.009983764 0.89600003
-0.18824145 0.009983764 0.89600003
-0.18624693 0.009983764 0.89600003
-0.18445805 0.0099949064 0.89700001
-0.18266471 0.01000605 0.89800006
-0.18086693 0.010017191 0.89900005
-0.17886572 0.010017191 0.89900005
-0.17686452 0.010017191 0.89900005
-0.17505781 0.010028334 0.90000004
-0.17286211 0.010017191 0.89900005
-0.17067084 0.01000605 0.89800006
-0.16848405 0.0099949064 0.89700001
-0.16648729 0.0099949064 0.89700001
-0.16449054 0.0099949064 0.89700001
-0.16231263 0.009983764 0.89600003
-0.16031811 0.009983764 0.89600003
-0.15850028 0.0099949064 0.89700001
-0.15632905 0.009983764 0.89600003
-0.15433453 0.009983764 0.89600003
-0.15251003 0.0099949064 0.89700001
-0.15051329 0.0099949064 0.89700001
-0.14835095 0.009983764 0.89600003
nan nan nan
nan nan nan
nan nan nan
-0.14162618 0.010072906 0.90400004
-0.13976829 0.010084047 0.90500003
-0.13775373 0.010084047 0.90500003
-0.13558918 0.010072906 0.90400004
-0.13357684 0.010072906 0.90400004
-0.13127345 0.01005062 0.90200007
-0.12883563 0.010017191 0.89900005
-0.12669335 0.01000605 0.89800006
-0.12469437 0.01000605 0.89800006
-0.12283202 0.010017191 0.89900005
-0.12083082 0.010017191 0.89900005
-0.1189618 0.010028334 0.90000004
-0.11734823 0.010061762 0.90300006
-0.11546585 0.010072906 0.90400004
-0.11345351 0.010072906 0.90400004
-0.11144118 0.010072906 0.90400004
-0.10942885 0.010072906 0.90400004
-0.10729769 0.010061762 0.90300006
-0.10517099 0.01005062 0.90200007
-0.10316311 0.01005062 0.90200007
-0.10115522 0.01005062 0.90200007
-0.099367179 0.010072906 0.90400004
-0.097247154 0.010061762 0.90300006
-0.095237046 0.010061762 0.90300006
-0.093330182 0.010072906 0.90400004
-0.091418862 0.010084047 0.90500003
-0.089305513 0.010072906 0.90400004
-0.087196618 0.010061762 0.90300006
-0.085280851 0.010072906 0.90400004
-0.083268516 0.010072906 0.90400004
-0.081435949 0.010095189 0.90600002
-0.079506837 0.010106333 0.90700006
-0.077487819 0.010106333 0.90700006
-0.075552016 0.010117475 0.90800005
-0.073530778 0.010117475 0.90800005
-0.071352027 0.010095189 0.90600002
-0.069105655 0.010061762 0.90300006
nan nan nan
nan nan nan
nan nan nan
nan nan nan
nan nan nan
nan nan nan
nan nan nan
nan nan nan
-0.046212647 0.0091146417 0.81800002
-0.044337481 0.0091034994 0.81700003
-0.042466767 0.0090923561 0.81600004
-0.040550694 0.0090700714 0.81400001
-0.038691111 0.0090589281 0.81300002
-0.03688135 0.0090589281 0.81300002
-0.035028446 0.0090477858 0.81200004
-0.033220906 0.0090477858 0.81200004
-0.031335998 0.0090255011 0.81000006
-0.029459991 0.0090032155 0.80800003
-0.027592886 0.0089809308 0.80600005
-0.025766697 0.0089697875 0.80500007
-0.023974741 0.0089697875 0.80500007
-0.022155229 0.0089586452 0.80400002
-0.020365499 0.0089586452 0.80400002
-0.018575769 0.0089586452 0.80400002
-0.016806915 0.0089697875 0.80500007
-0.01501496 0.0089697875 0.80500007
-0.013223005 0.0089697875 0.80500007
-0.011431048 0.0089697875 0.80500007
-0.0096271187 0.0089586452 0.80400002
-0.0078276396 0.0089475028 0.80300003
-0.0060401359 0.0089475028 0.80300003
-0.0042526317 0.0089475028 0.80300003
-0.0024681976 0.0089586452 0.80400002
-0.00067846762 0.0089586452 0.80400002
0.0011126446 0.0089697875 0.80500007
0.0029154252 0.0090032155 0.80800003
0.0047315625 0.0090366434 0.81100005
0.0065529947 0.0090589281 0.81300002
0.0084347632 0.0091369273 0.82000005
nan nan nan
nan nan nan
nan nan nan
nan nan nan
nan nan nan
nan nan nan
nan nan nan
nan nan nan
nan nan nan
nan nan nan
nan nan nan
nan nan nan
nan nan nan
nan nan nan
nan nan nan
nan nan nan
nan nan nan
nan nan nan
nan nan nan
nan nan nan
nan nan nan
0.054103475 0.010173188 0.91300005
0.056135841 0.010173188 0.91300005
0.05816821 0.010173188 0.91300005
0.060200576 0.010173188 0.91300005
0.062232945 0.010173188 0.91300005
0.064265311 0.010173188 0.91300005
0.066442907 0.010195473 0.91500002
0.068479732 0.010195473 0.91500002
0.070516549 0.010195473 0.91500002
0.072553366 0.010195473 0.91500002
0.074590191 0.010195473 0.91500002
0.07687825 0.010228901 0.91800004
0.078921743 0.010228901 0.91800004
0.081053436 0.010240044 0.91900003
0.083099164 0.010240044 0.91900003
0.085144885 0.010240044 0.91900003
0.087095737 0.010228901 0.91800004
0.089139231 0.010228901 0.91800004
0.0910834 0.010217758 0.91700006
0.093124673 0.010217758 0.91700006
0.094958387 0.010195473 0.91500002
0.096889198 0.010184331 0.91400003
0.09881556 0.010173188 0.91300005
0.10095838 0.010184331 0.91400003
0.10310566 0.010195473 0.91500002
0.10514248 0.010195473 0.91500002
0.10741358 0.010217758 0.91700006
0.10969357 0.010240044 0.91900003
0.11210406 0.010273471 0.92200005
0.11428028 0.010284614 0.92300004
0.11633491 0.010284614 0.92300004
0.11838953 0.010284614 0.92300004
0.12031367 0.010273471 0.92200005
0.12223335 0.010262329 0.92100006
0.12401364 0.010240044 0.91900003
0.12605937 0.010240044 0.91900003
0.12796569 0.010228901 0.91800004
0.13015081 0.010240044 0.91900003
0.13219653 0.010240044 0.91900003
0.13424225 0.010240044 0.91900003
0.13658458 0.010262329 0.92100006
0.13878529 0.010273471 0.92200005
0.14099044 0.010284614 0.92300004
0.14304507 0.010284614 0.92300004
0.1450997 0.010284614 0.92300004
0.14699489 0.010273471 0.92200005
0.14904729 0.010273471 0.92200005
0.15093581 0.010262329 0.92100006
0.15298599 0.010262329 0.92100006
0.15503617 0.010262329 0.92100006
0.15691577 0.010251186 0.92000002
0.15896372 0.010251186 0.92000002
0.16083667 0.010240044 0.91900003
0.16270514 0.010228901 0.91800004
0.16474864 0.010228901 0.91800004
0.16679214 0.010228901 0.91800004
0.16865173 0.010217758 0.91700006
0.170693 0.010217758 0.91700006
0.17292263 0.010228901 0.91800004
0.17496613 0.010228901 0.91800004
0.17739527 0.010251186 0.92000002
0.18002836 0.010284614 0.92300004
0.18228026 0.010295756 0.92400002
0.18553412 0.010362612 0.93000007
0.1882095 0.01039604 0.93300003
0.1902864 0.01039604 0.93300003
0.19236329 0.01039604 0.93300003
0.19444017 0.01039604 0.93300003
0.19630642 0.010384898 0.93200004
0.19795537 0.010362612 0.93000007
0.19959542 0.010340327 0.92800003
0.20144388 0.010329185 0.92700005
0.20328787 0.010318042 0.92600006
0.20490566 0.010295756 0.92400002
0.20673853 0.010284614 0.92300004
0.20879316 0.010284614 0.92300004
0.21061935 0.010273471 0.92200005
0.21290241 0.010284614 0.92300004
0.21472414 0.010273471 0.92200005
0.21701168 0.010284614 0.92300004
0.21906631 0.010284614 0.92300004
0.22136049 0.010295756 0.92400002
0.22365914 0.010306899 0.92500007
0.22571823 0.010306899 0.92500007
0.22802354 0.010318042 0.92600006
0.23058179 0.010340327 0.92800003
0.23289825 0.010351469 0.92900002
0.2347133 0.010340327 0.92800003
0.23677906 0.010340327 0.92800003
0.23884483 0.010340327 0.92800003
0.2411702 0.010351469 0.92900002
0.24349999 0.010362612 0.93000007
0.24557021 0.010362612 0.93000007
0.24737415 0.010351469 0.92900002
0.24944213 0.010351469 0.92900002
0.25151011 0.010351469 0.92900002
0.25330514 0.010340327 0.92800003
0.25482053 0.010318042 0.92600006
0.25715923 0.010329185 0.92700005
0.25950241 0.010340327 0.92800003
0.26185003 0.010351469 0.92900002
0.26448619 0.010373754 0.93100005
0.26684493 0.010384898 0.93200004
0.26891959 0.010384898 0.93200004
0.27128503 0.01039604 0.93300003
0.27336192 0.01039604 0.93300003
nan nan nan
0.27662337 0.010362612 0.93000007
0.27809423 0.010340327 0.92800003
nan nan nan
0.28192163 0.010329185 0.92700005
0.28398517 0.010329185 0.92700005
0.28574011 0.010318042 0.92600006
0.28842303 0.010340327 0.92800003
0.29080182 0.010351469 0.92900002
0.29350027 0.010373754 0.93100005
0.2962077 0.01039604 0.93300003
0.29860431 0.010407183 0.93400002
0.3010053 0.010418325 0.93500006
0.30308667 0.010418325 0.93500006
0.305168 0.010418325 0.93500006
0.30724934 0.010418325 0.93500006
0.30933067 0.010418325 0.93500006
0.31141201 0.010418325 0.93500006
0.31416395 0.01044061 0.93700004
0.31624976 0.01044061 0.93700004
0.319015 0.010462896 0.93900007
0.32144722 0.010474037 0.94000006
0.32353967 0.010474037 0.94000006
0.32563215 0.010474037 0.94000006
0.32737598 0.010462896 0.93900007
0.3287645 0.01044061 0.93700004
0.33014408 0.010418325 0.93500006
0.33222541 0.010418325 0.93500006
0.33394924 0.010407183 0.93400002
0.33530879 0.010384898 0.93200004
0.33702144 0.010373754 0.93100005
0.33836544 0.010351469 0.92900002
nan nan nan
nan nan nan
nan nan nan
nan nan nan
nan nan nan
0.35077336 0.010351469 0.92900002
0.35322115 0.010362612 0.93000007
nan nan nan
0.35851434 0.01039604 0.93300003
nan nan nan
0.36227939 0.010384898 0.93200004
0.36435407 0.010384898 0.93200004
0.36682189 0.01039604 0.93300003
0.36889878 0.01039604 0.93300003
0.37057805 0.010384898 0.93200004
0.37225285 0.010373754 0.93100005
0.37432531 0.010373754 0.93100005
0.37761065 0.010407183 0.93400002
0.38009626 0.010418325 0.93500006
0.38217759 0.010418325 0.93500006
0.38425893 0.010418325 0.93500006
0.38634026 0.010418325 0.93500006
0.3884216 0.010418325 0.93500006
0.39050296 0.010418325 0.93500006
0.39174455 0.01039604 0.93300003
0.39382145 0.01039604 0.93300003
0.39674696 0.010418325 0.93500006
0.39925489 0.010429468 0.93600005
0.40176722 0.01044061 0.93700004
0.40428403 0.010451753 0.93800002
0.40637207 0.010451753 0.93800002
0.40846008 0.010451753 0.93800002
0.41011041 0.01044061 0.93700004
0.41131637 0.010418325 0.93500006
0.41295558 0.010407183 0.93400002
0.41503468 0.010407183 0.93400002
0.41711381 0.010407183 0.93400002
0.4196417 0.010418325 0.93500006
0.4221741 0.010429468 0.93600005
0.42561746 0.010462896 0.93900007
0.4281632 0.010474037 0.94000006
0.43071342 0.010485181 0.94100004
0.4328081 0.010485181 0.94100004
0.43536493 0.010496323 0.94200003
0.43746188 0.010496323 0.94200003
0.4395588 0.010496323 0.94200003
0.4411869 0.010485181 0.94100004
0.44281051 0.010474037 0.94000006
0.44395638 0.010451753 0.93800002
0.44556886 0.01044061 0.93700004
0.44669914 0.010418325 0.93500006
0.44926047 0.010429468 0.93600005
0.45134404 0.010429468 0.93600005
0.45342761 0.010429468 0.93600005
0.45551115 0.010429468 0.93600005
0.45808363 0.01044061 0.93700004
0.46066055 0.010451753 0.93800002
0.46324188 0.010462896 0.93900007
0.46483657 0.010451753 0.93800002
0.46692458 0.010451753 0.93800002
0.46951258 0.010462896 0.93900007
0.47110063 0.010451753 0.93800002
0.47318864 0.010451753 0.93800002
0.47476995 0.01044061 0.93700004
0.47634682 0.010429468 0.93600005
0.47894156 0.01044061 0.93700004
0.48154071 0.010451753 0.93800002
0.4841443 0.010462896 0.93900007
0.48623455 0.010462896 0.93900007
0.48832479 0.010462896 0.93900007
0.49093732 0.010474037 0.94000006
0.4930298 0.010474037 0.94000006
0.49459553 0.010462896 0.93900007
0.49615684 0.010451753 0.93800002
0.49771369 0.01044061 0.93700004
nan nan nan
nan nan nan
nan nan nan
nan nan nan
nan nan nan
nan nan nan
nan nan nan
nan nan nan
nan nan nan
nan nan nan
nan nan nan
nan nan nan
nan nan nan
nan nan nan
nan nan nan
nan nan nan
nan nan nan
nan nan nan
nan nan nan
nan nan nan
nan nan nan
nan nan nan
nan nan nan
nan nan nan
nan nan nan
nan nan nan
nan nan nan
nan nan nan
nan nan nan
nan nan nan
nan nan nan
nan nan nan
nan nan nan
nan nan nan
nan nan nan
nan nan nan
nan nan nan
nan nan nan
nan nan nan
-0.3949315 0.01177776 0.88100004
nan nan nan
nan nan nan
-0.38860649 0.011764391 0.88000005
-0.38708696 0.01177776 0.88100004
nan nan nan
-0.3831647 0.01177776 0.88100004
-0.38163623 0.011791129 0.88200003
-0.37924242 0.01177776 0.88100004
-0.37728128 0.01177776 0.88100004
-0.37574616 0.011791129 0.88200003
-0.37335902 0.01177776 0.88100004
-0.37139788 0.01177776 0.88100004
-0.36943674 0.01177776 0.88100004
-0.36747563 0.01177776 0.88100004
-0.36717403 0.011831234 0.88500005
-0.36520398 0.011831234 0.88500005
-0.36323395 0.011831234 0.88500005
-0.3612639 0.011831234 0.88500005
-0.35929388 0.011831234 0.88500005
nan nan nan
-0.35414919 0.011791129 0.88200003
-0.3513872 0.011764391 0.88000005
-0.34863415 0.011737654 0.87800002
-0.34667972 0.011737654 0.87800002
-0.34511787 0.011751023 0.87900007
-0.3443324 0.011791129 0.88200003
-0.34353358 0.011831234 0.88500005
-0.34156352 0.011831234 0.88500005
-0.34036091 0.011857972 0.88700002
-0.33876792 0.01187134 0.88800007
-0.33679119 0.01187134 0.88800007
-0.33443743 0.011857972 0.88700002
-0.33246294 0.011857972 0.88700002
nan nan nan
nan nan nan
nan nan nan
nan nan nan
nan nan nan
nan nan nan
nan nan nan
-0.31702402 0.01187134 0.88800007
-0.31433776 0.011844603 0.88600004
-0.31271803 0.011857972 0.88700002
-0.31004292 0.011831234 0.88500005
-0.30807287 0.011831234 0.88500005
-0.30610284 0.011831234 0.88500005
-0.30413279 0.011831234 0.88500005
-0.3028456 0.011857972 0.88700002
-0.30121028 0.01187134 0.88800007
-0.29957056 0.011884709 0.88900006
-0.29826111 0.011911446 0.89100003
-0.29661024 0.011924814 0.89200002
nan nan nan
-0.29296708 0.011938184 0.89300007
nan nan nan
-0.28931499 0.011951552 0.89400005
-0.28732494 0.011951552 0.89400005
-0.28597319 0.011978289 0.89600003
-0.28366169 0.011964921 0.89500004
-0.2813547 0.011951552 0.89400005
-0.27967712 0.011964921 0.89500004
-0.27799508 0.011978289 0.89600003
-0.27600056 0.011978289 0.89600003
-0.27400604 0.011978289 0.89600003
-0.27140433 0.011951552 0.89400005
-0.26881155 0.011924814 0.89200002
-0.26682591 0.011924814 0.89200002
-0.2648403 0.011924814 0.89200002
-0.26256001 0.011911446 0.89100003
-0.26028416 0.011898077 0.89000005
-0.25830299 0.011898077 0.89000005
-0.25660983 0.011911446 0.89100003
-0.2549122 0.011924814 0.89200002
-0.25292659 0.011924814 0.89200002
-0.25094095 0.011924814 0.89200002
-0.24895534 0.011924814 0.89200002
-0.24752346 0.011951552 0.89400005
-0.24608268 0.011978289 0.89600003
-0.24408816 0.011978289 0.89600003
-0.24290422 0.012018395 0.89900005
-0.24170691 0.012058501 0.90200007
-0.23969904 0.012058501 0.90200007
nan nan nan
nan nan nan
-0.23186193 0.011964921 0.89500004
-0.22986963 0.011964921 0.89500004
-0.22736812 0.011938184 0.89300007
-0.22538027 0.011938184 0.89300007
-0.22339243 0.011938184 0.89300007
-0.22115664 0.011924814 0.89200002
-0.21941672 0.011938184 0.89300007
-0.21742888 0.011938184 0.89300007
-0.21519978 0.011924814 0.89200002
-0.21321416 0.011924814 0.89200002
-0.21122855 0.011924814 0.89200002
-0.20924293 0.011924814 0.89200002
-0.2072573 0.011924814 0.89200002
-0.20527168 0.011924814 0.89200002
-0.20351395 0.011938184 0.89300007
-0.20130044 0.011924814 0.89200002
-0.19931482 0.011924814 0.89200002
-0.19732919 0.011924814 0.89200002
-0.19534358 0.011924814 0.89200002
-0.19335796 0.011924814 0.89200002
-0.19137233 0.011924814 0.89200002
-0.18938671 0.011924814 0.89200002
-0.18740109 0.011924814 0.89200002
-0.18541548 0.011924814 0.89200002
-0.18384112 0.011951552 0.89400005
-0.18225788 0.011978289 0.89600003
-0.18026336 0.011978289 0.89600003
-0.17826883 0.011978289 0.89600003
-0.1762743 0.011978289 0.89600003
-0.17427978 0.011978289 0.89600003
-0.17228526 0.011978289 0.89600003
-0.16991062 0.011951552 0.89400005
-0.1677327 0.011938184 0.89300007
-0.16555926 0.011924814 0.89200002
-0.16357364 0.011924814 0.89200002
-0.16140686 0.011911446 0.89100003
-0.1596024 0.011924814 0.89200002
-0.15761678 0.011924814 0.89200002
-0.15563115 0.011924814 0.89200002
-0.15364555 0.011924814 0.89200002
-0.15165992 0.011924814 0.89200002
-0.1496743 0.011924814 0.89200002
nan nan nan
nan nan nan
nan nan nan
nan nan nan
-0.14052951 0.011991657 0.89700001
-0.13868721 0.012005026 0.89800006
-0.13684045 0.012018395 0.89900005
-0.13498923 0.012031764 0.90000004
-0.1329858 0.012031764 0.90000004
-0.13083683 0.012018395 0.89900005
-0.12854901 0.011991657 0.89700001
-0.12641118 0.011978289 0.89600003
-0.1242778 0.011964921 0.89500004
-0.12242213 0.011978289 0.89600003
-0.1204276 0.011978289 0.89600003
-0.11843308 0.011978289 0.89600003
-0.11656851 0.011991657 0.89700001
-0.11482721 0.012018395 0.89900005
-0.11282601 0.012018395 0.89900005
-0.11082481 0.012018395 0.89900005
-0.1088236 0.012018395 0.89900005
-0.1068224 0.012018395 0.89900005
-0.1048212 0.012018395 0.89900005
-0.10281999 0.012018395 0.89900005
-0.10081879 0.012018395 0.89900005
-0.098817587 0.012018395 0.89900005
-0.096816383 0.012018395 0.89900005
-0.09481518 0.012018395 0.89900005
-0.093020461 0.012045132 0.90100002
-0.091014802 0.012045132 0.90100002
-0.088811569 0.012018395 0.89900005
-0.086810365 0.012018395 0.89900005
-0.084809162 0.012018395 0.89900005
-0.082992181 0.012045132 0.90100002
-0.081166297 0.012071869 0.90300006
-0.07915619 0.012071869 0.90300006
-0.077231519 0.012085238 0.90400004
-0.075302392 0.012098607 0.90500003
-0.073206849 0.012085238 0.90400004
-0.071194522 0.012085238 0.90400004
-0.068952598 0.012045132 0.90100002
-0.06657543 0.011978289 0.89600003
nan nan nan
nan nan nan
nan nan nan
nan nan nan
nan nan nan
nan nan nan
nan nan nan
-0.046325635 0.010962274 0.82000005
-0.044391751 0.010935537 0.81800002
-0.042518813 0.010922167 0.81700003
-0.040650327 0.010908799 0.81600004
-0.038786292 0.010895431 0.81500006
-0.036926713 0.010882062 0.81400001
-0.035071585 0.010868694 0.81300002
-0.033261821 0.010868694 0.81300002
-0.031413369 0.010855325 0.81200004
-0.029532911 0.010828586 0.81000006
-0.027695591 0.010815219 0.80900002
-0.025894731 0.010815219 0.80900002
-0.024034305 0.010788481 0.80700004
-0.022237897 0.010788481 0.80700004
-0.020441487 0.010788481 0.80700004
-0.01864508 0.010788481 0.80700004
-0.016848672 0.010788481 0.80700004
-0.015052265 0.010788481 0.80700004
-0.013272283 0.010801851 0.80800003
-0.011459448 0.010788481 0.80700004
-0.0096630407 0.010788481 0.80700004
-0.0078568831 0.010775113 0.80600005
-0.0060627013 0.010775113 0.80600005
-0.0042685196 0.010775113 0.80600005
-0.0024743374 0.010775113 0.80600005
-0.00068015535 0.010775113 0.80600005
0.001115409 0.010788481 0.80700004
0.0029226416 0.010828586 0.81000006
0.0047432305 0.010868694 0.81300002
0.0065691154 0.010895431 0.81500006
nan nan nan
nan nan nan
nan nan nan
nan nan nan
nan nan nan
nan nan nan
nan nan nan
nan nan nan
nan nan nan
nan nan nan
nan nan nan
nan nan nan
nan nan nan
nan nan nan
nan nan nan
nan nan nan
nan nan nan
nan nan nan
nan nan nan
nan nan nan
0.049764708 0.012138712 0.90800005
0.051785942 0.012138712 0.90800005
0.053866442 0.012152081 0.90900004
0.055889904 0.012152081 0.90900004
0.05797708 0.01216545 0.91000003
0.060068704 0.012178819 0.91100007
0.062028456 0.01216545 0.91000003
0.064124539 0.012178819 0.91100007
0.066225067 0.012192187 0.91200006
0.068255208 0.012192187 0.91200006
0.07028535 0.012192187 0.91200006
0.072394781 0.012205555 0.91300005
0.074345633 0.012192187 0.91200006
0.07645952 0.012205555 0.91300005
0.078577854 0.012218924 0.91400003
0.080524251 0.012205555 0.91300005
0.08264704 0.012218924 0.91400003
0.084681638 0.012218924 0.91400003
0.086716235 0.012218924 0.91400003
0.088653721 0.012205555 0.91300005
0.09068609 0.012205555 0.91300005
0.09271846 0.012205555 0.91300005
0.094647042 0.012192187 0.91200006
0.096571177 0.012178819 0.91100007
0.098599099 0.012178819 0.91100007
0.10062701 0.012178819 0.91100007
0.10276761 0.012192187 0.91200006
0.10491266 0.012205555 0.91300005
0.10694503 0.012205555 0.91300005
0.10921612 0.012232292 0.91500002
0.11161771 0.012272399 0.91800004
0.11366121 0.012272399 0.91800004
0.1157047 0.012272399 0.91800004
0.11787647 0.012285767 0.91900003
0.1197917 0.012272399 0.91800004
0.12183519 0.012272399 0.91800004
0.12374375 0.01225903 0.91700006
0.12551068 0.012232292 0.91500002
0.1275475 0.012232292 0.91500002
0.12972595 0.012245662 0.91600007
0.13176499 0.012245662 0.91600007
0.13395011 0.01225903 0.91700006
0.13613968 0.012272399 0.91800004
0.13818318 0.012272399 0.91800004
0.14037943 0.012285767 0.91900003
0.14242515 0.012285767 0.91900003
0.14431368 0.012272399 0.91800004
0.14651661 0.012285767 0.91900003
0.14856233 0.012285767 0.91900003
0.15044415 0.012272399 0.91800004
0.15248765 0.012272399 0.91800004
0.15453115 0.012272399 0.91800004
0.15640409 0.01225903 0.91700006
0.15844537 0.01225903 0.91700006
0.16013661 0.012232292 0.91500002
0.16217344 0.012232292 0.91500002
0.16421026 0.012232292 0.91500002
0.16624707 0.012232292 0.91500002
0.16809998 0.012218924 0.91400003
0.17013457 0.012218924 0.91400003
0.17235753 0.012232292 0.91500002
0.17458495 0.012245662 0.91600007
0.17681682 0.01225903 0.91700006
0.17905313 0.012272399 0.91800004
0.18149117 0.012299135 0.92000002
0.18453662 0.012365979 0.92500007
0.18720087 0.012406085 0.92800003
0.18947059 0.012419453 0.92900002
0.19174474 0.012432822 0.93000007
0.19402337 0.01244619 0.93100005
0.19567454 0.012419453 0.92900002
0.19710395 0.012379347 0.92600006
0.19895019 0.012365979 0.92500007
0.20057465 0.012339242 0.92300004
0.20240973 0.012325873 0.92200005
0.20424038 0.012312504 0.92100006
0.20606656 0.012299135 0.92000002
0.20811452 0.012299135 0.92000002
0.20993404 0.012285767 0.91900003
0.21197976 0.012285767 0.91900003
0.21379259 0.012272399 0.91800004
0.2160712 0.012285767 0.91900003
0.21787958 0.012272399 0.91800004
0.21992308 0.012272399 0.91800004
0.22220838 0.012285767 0.91900003
0.22449811 0.012299135 0.92000002
0.22703856 0.012325873 0.92200005
0.22933944 0.012339242 0.92300004
0.23164475 0.01235261 0.92400002
0.23370162 0.01235261 0.92400002
0.23550332 0.012339242 0.92300004
0.23755795 0.012339242 0.92300004
0.23961258 0.012339242 0.92300004
0.24166721 0.012339242 0.92300004
